ply
format ascii 1.0
element vertex 1312
property float x
property float y
property float z
property uchar red
property uchar green
property uchar blue
end_header
-0.201970 0.005915 -0.024456 255 0 0
0.019081 0.157191 0.365126 255 0 0
-0.216957 -0.050154 0.211133 255 0 0
0.224657 -0.048010 -0.032350 255 0 0
-0.207487 0.030737 -0.118353 255 0 0
0.124800 -0.113740 0.295088 255 0 0
-0.059697 -0.033777 0.467858 255 0 0
0.044352 -0.045763 -0.474819 255 0 0
-0.062897 -0.168531 0.218359 255 0 0
-0.167017 0.136991 0.286278 255 0 0
0.164311 0.137699 0.009016 255 0 0
0.168339 0.041803 -0.371574 255 0 0
-0.006752 0.200403 0.087913 255 0 0
-0.039623 0.058427 -0.384300 255 0 0
0.022206 0.069843 -0.342970 255 0 0
-0.119281 -0.020002 -0.473348 255 0 0
-0.069450 -0.153151 0.367249 255 0 0
-0.195257 0.056483 0.393085 255 0 0
-0.216063 0.010542 0.159609 255 0 0
0.199578 0.018392 -0.327136 255 0 0
-0.094622 0.112477 -0.235553 255 0 0
-0.195112 0.059733 0.149357 255 0 0
-0.110431 0.185968 0.249736 255 0 0
-0.176941 -0.197332 -0.377174 255 0 0
-0.194913 0.050196 -0.193266 255 0 0
-0.197761 0.059803 0.238101 255 0 0
-0.014092 0.198658 0.003930 255 0 0
0.132655 -0.161990 -0.090109 255 0 0
0.206145 -0.069073 -0.426281 255 0 0
-0.041202 0.055280 -0.409220 255 0 0
-0.175245 0.127410 0.019014 255 0 0
-0.222614 -0.117865 0.038944 255 0 0
0.171935 -0.151594 -0.004315 255 0 0
0.161868 0.081641 -0.227207 255 0 0
-0.192430 0.070946 0.283282 255 0 0
0.160403 -0.048488 -0.468651 255 0 0
-0.126800 -0.071946 0.482057 255 0 0
-0.222173 -0.124454 0.118899 255 0 0
0.144747 0.187319 0.099995 255 0 0
-0.191965 -0.168828 -0.302589 255 0 0
-0.198438 0.040654 0.379959 255 0 0
-0.200725 0.057018 0.139013 255 0 0
0.204359 -0.132542 0.403774 255 0 0
0.108573 -0.116240 0.481841 255 0 0
0.208756 0.043618 0.341766 255 0 0
0.006991 0.193128 0.230368 255 0 0
-0.188575 -0.143322 0.339885 255 0 0
-0.184761 0.091585 -0.014291 255 0 0
0.044874 0.100570 -0.278844 255 0 0
0.163303 -0.076671 0.465425 255 0 0
-0.137952 0.137657 0.380307 255 0 0
0.176910 0.030132 0.417665 255 0 0
-0.187412 -0.158554 -0.269956 255 0 0
-0.021903 0.209223 -0.004159 255 0 0
-0.198252 -0.100174 -0.294567 255 0 0
-0.195287 -0.128114 0.339802 255 0 0
0.207268 -0.108877 -0.382764 255 0 0
0.205096 -0.125026 0.311621 255 0 0
-0.171412 -0.079607 -0.463074 255 0 0
-0.110152 0.137702 0.393233 255 0 0
-0.216616 -0.087527 0.084704 255 0 0
-0.006661 0.037449 0.464864 255 0 0
-0.034392 0.034278 -0.438273 255 0 0
0.172276 0.126762 0.169054 255 0 0
0.186235 0.094662 0.048415 255 0 0
-0.058254 0.040305 -0.396617 255 0 0
0.188694 -0.065231 0.435785 255 0 0
0.220202 -0.026347 0.262695 255 0 0
-0.070280 0.207288 0.139765 255 0 0
-0.060803 -0.076624 -0.499084 255 0 0
-0.054979 -0.040070 -0.307474 255 0 0
0.223905 -0.077414 0.212068 255 0 0
-0.014908 -0.144113 -0.466173 255 0 0
-0.062313 0.173823 -0.108292 255 0 0
0.081262 0.195229 0.245090 255 0 0
-0.029623 0.017965 -0.457362 255 0 0
0.150039 0.173290 -0.072364 255 0 0
-0.064100 -0.164926 0.178655 255 0 0
-0.099377 -0.105884 -0.461605 255 0 0
0.182832 -0.053579 0.440452 255 0 0
-0.218216 -0.101011 -0.255972 255 0 0
0.003619 -0.161749 -0.037746 255 0 0
-0.112482 0.141143 0.449427 255 0 0
-0.087545 0.013429 0.456456 255 0 0
-0.094278 0.098876 0.449678 255 0 0
-0.097167 0.160654 -0.150488 255 0 0
-0.151241 -0.135603 0.452195 255 0 0
-0.149975 0.113637 0.375907 255 0 0
0.018878 -0.165000 0.294435 255 0 0
0.039705 0.208656 0.011332 255 0 0
0.210655 -0.005187 0.223872 255 0 0
0.153964 -0.039415 0.460702 255 0 0
-0.223264 -0.096088 0.042875 255 0 0
0.054042 0.200351 0.023709 255 0 0
0.175031 -0.142377 0.437800 255 0 0
0.101535 -0.166133 0.261873 255 0 0
-0.189049 0.064356 -0.166730 255 0 0
-0.201488 0.036935 -0.193824 255 0 0
-0.070210 -0.158558 0.197001 255 0 0
0.149199 0.137369 -0.144763 255 0 0
-0.201997 -0.008256 0.386177 255 0 0
0.084301 -0.129247 0.483517 255 0 0
-0.110650 -0.155841 0.427953 255 0 0
0.220955 -0.040392 0.156176 255 0 0
0.079270 -0.097534 -0.482520 255 0 0
-0.209568 -0.113237 0.173680 255 0 0
0.108099 -0.166670 -0.171597 255 0 0
-0.212743 -0.123993 -0.050091 255 0 0
0.112208 -0.081635 0.463978 255 0 0
0.109334 -0.094199 0.475253 255 0 0
0.201715 -0.137226 0.016692 255 0 0
0.214332 -0.072325 0.095731 255 0 0
-0.028785 0.028271 -0.461324 255 0 0
-0.076913 0.180238 0.331883 255 0 0
-0.067914 -0.141780 0.022782 255 0 0
-0.115195 0.078446 -0.288502 255 0 0
0.179249 -0.119809 0.395823 255 0 0
0.016169 -0.027413 0.463553 255 0 0
-0.216500 -0.122143 -0.198752 255 0 0
-0.146406 0.159193 -0.115749 255 0 0
0.197677 0.081710 0.308582 255 0 0
-0.161096 -0.079210 0.458176 255 0 0
0.199035 0.001830 0.073351 255 0 0
0.082830 0.086755 -0.289526 255 0 0
0.180767 0.106445 0.074831 255 0 0
0.187861 0.080515 -0.079015 255 0 0
-0.208250 -0.179245 -0.311775 255 0 0
0.093149 -0.150471 0.473445 255 0 0
-0.143058 0.147802 -0.126778 255 0 0
-0.208399 -0.009962 -0.003255 255 0 0
-0.218767 -0.054299 -0.166660 255 0 0
0.221789 -0.104580 0.142229 255 0 0
-0.143644 0.069678 -0.274761 255 0 0
-0.117590 0.193743 0.262583 255 0 0
0.220161 -0.113661 0.133974 255 0 0
-0.206374 -0.136755 -0.063112 255 0 0
0.209614 -0.071735 -0.169859 255 0 0
0.161917 -0.129774 -0.451677 255 0 0
-0.151713 0.133492 0.382707 255 0 0
0.217832 -0.053486 -0.379502 255 0 0
-0.207884 0.044592 0.036575 255 0 0
0.152213 -0.138580 0.458515 255 0 0
0.172924 -0.049226 0.106268 255 0 0
0.023336 0.197535 -0.062741 255 0 0
0.171165 0.040218 -0.343745 255 0 0
-0.211585 -0.120334 -0.150378 255 0 0
-0.215482 -0.130629 -0.009878 255 0 0
0.073689 -0.079375 -0.487336 255 0 0
-0.072629 0.178138 -0.114773 255 0 0
0.029274 0.167255 0.378266 255 0 0
-0.119621 -0.074851 0.479661 255 0 0
-0.017688 -0.022243 -0.479075 255 0 0
0.213740 -0.079707 -0.055578 255 0 0
0.010841 -0.159835 -0.071741 255 0 0
0.216482 -0.018915 0.089516 255 0 0
-0.041509 0.089789 -0.248479 255 0 0
0.200667 -0.134739 -0.402195 255 0 0
0.106039 0.045720 -0.395186 255 0 0
0.221517 -0.025108 -0.109289 255 0 0
0.179040 0.070849 -0.243663 255 0 0
-0.222110 -0.106121 0.128504 255 0 0
0.086015 0.022360 -0.448869 255 0 0
-0.097518 0.173740 -0.077542 255 0 0
-0.207176 -0.064587 0.344466 255 0 0
0.191622 -0.009075 0.364246 255 0 0
0.033685 0.038912 -0.445785 255 0 0
-0.035613 -0.054838 0.493261 255 0 0
0.013782 0.185775 -0.114451 255 0 0
-0.146752 -0.048465 -0.367379 255 0 0
-0.146928 0.136682 0.365297 255 0 0
-0.185752 -0.129369 0.393735 255 0 0
0.049572 0.199370 0.211596 255 0 0
0.219375 -0.017434 0.035363 255 0 0
-0.168206 -0.086258 -0.310432 255 0 0
0.013588 0.093681 -0.297001 255 0 0
0.153826 0.003065 0.444147 255 0 0
0.022149 0.121232 -0.231932 255 0 0
0.218620 -0.047217 -0.052861 255 0 0
0.076614 0.154025 -0.147987 255 0 0
0.108603 0.130063 -0.183416 255 0 0
0.204465 -0.107207 0.364129 255 0 0
0.171957 0.114393 -0.056386 255 0 0
-0.086433 0.175755 -0.025937 255 0 0
-0.162915 -0.148943 0.373898 255 0 0
0.167259 0.137261 0.072068 255 0 0
-0.032342 0.058245 -0.355672 255 0 0
-0.167239 0.040681 -0.380739 255 0 0
0.063546 0.144071 -0.192417 255 0 0
-0.038863 0.209197 0.053253 255 0 0
-0.224485 -0.106421 -0.036502 255 0 0
0.060654 -0.158933 0.311200 255 0 0
-0.058073 0.196375 0.169601 255 0 0
-0.089889 0.202187 0.077715 255 0 0
-0.204504 -0.091731 -0.281773 255 0 0
0.038601 0.008169 -0.455435 255 0 0
-0.146813 -0.084171 0.255625 255 0 0
-0.109833 -0.069682 0.488253 255 0 0
0.013583 0.210847 0.087727 255 0 0
-0.168949 0.060694 0.432595 255 0 0
-0.197752 -0.022487 -0.394931 255 0 0
-0.188001 0.092533 0.144752 255 0 0
0.116698 -0.166340 0.364274 255 0 0
0.167397 0.091442 0.398474 255 0 0
0.218156 0.001124 0.167100 255 0 0
-0.140194 0.183656 -0.015373 255 0 0
-0.004221 -0.077986 -0.487610 255 0 0
0.215255 -0.056721 -0.020368 255 0 0
-0.024604 -0.040229 -0.480699 255 0 0
-0.150612 0.118817 0.408545 255 0 0
0.102195 0.078294 0.460301 255 0 0
0.220417 -0.043514 -0.010007 255 0 0
0.000079 0.208868 0.177076 255 0 0
0.222844 -0.024490 0.206983 255 0 0
0.106461 0.157636 -0.156716 255 0 0
0.200297 -0.144470 0.186675 255 0 0
0.188479 -0.000603 0.400879 255 0 0
0.033736 0.212229 0.064424 255 0 0
0.205499 0.022555 -0.078392 255 0 0
-0.205944 -0.027136 -0.392559 255 0 0
-0.042156 0.197019 -0.072175 255 0 0
-0.123191 0.052945 -0.367977 255 0 0
0.162363 0.143450 0.212030 255 0 0
0.165056 0.111338 0.006849 255 0 0
-0.114903 0.020389 -0.458522 255 0 0
0.060238 0.206031 0.191053 255 0 0
0.213671 -0.003727 0.097387 255 0 0
0.196974 -0.003988 0.384690 255 0 0
-0.099478 0.202576 0.010023 255 0 0
-0.212778 -0.127424 -0.083130 255 0 0
0.213908 -0.039387 0.155908 255 0 0
0.027391 -0.108195 -0.496040 255 0 0
-0.173318 -0.202090 -0.303598 255 0 0
-0.205465 -0.052165 -0.159355 255 0 0
0.021981 0.203757 0.226757 255 0 0
0.059562 0.073796 0.462245 255 0 0
-0.193205 -0.084092 0.354068 255 0 0
0.162642 0.050309 -0.297470 255 0 0
0.135548 0.132334 -0.163348 255 0 0
0.118723 -0.164104 0.391429 255 0 0
-0.198434 0.006603 -0.234110 255 0 0
0.192015 0.081578 -0.113168 255 0 0
-0.010105 0.057438 -0.376940 255 0 0
0.159611 0.051477 -0.308853 255 0 0
0.163765 -0.089142 -0.437295 255 0 0
-0.042864 -0.161322 0.254060 255 0 0
0.006368 0.141382 -0.196450 255 0 0
-0.130587 0.136259 -0.176200 255 0 0
-0.186107 0.006323 -0.403384 255 0 0
-0.194545 0.082496 0.294335 255 0 0
0.213096 -0.032927 -0.133927 255 0 0
-0.209753 -0.119935 -0.390610 255 0 0
-0.003221 -0.166267 -0.209387 255 0 0
0.133968 0.169900 0.224437 255 0 0
-0.216471 -0.022169 0.044575 255 0 0
0.150206 0.102062 0.421604 255 0 0
0.217367 -0.012718 0.044159 255 0 0
0.213722 -0.022053 -0.157810 255 0 0
-0.113196 0.128393 0.422457 255 0 0
0.025071 0.197721 0.165028 255 0 0
-0.127525 0.206889 0.027177 255 0 0
0.216775 -0.036422 0.232836 255 0 0
-0.197797 -0.085142 0.417988 255 0 0
0.096758 -0.160435 -0.366540 255 0 0
0.215981 0.002170 0.185403 255 0 0
-0.064297 0.021446 0.457195 255 0 0
0.190654 -0.050224 0.407467 255 0 0
0.002392 -0.169726 0.444254 255 0 0
0.067729 0.190348 0.282144 255 0 0
-0.152229 0.153982 0.288773 255 0 0
0.053354 -0.160297 -0.333532 255 0 0
0.170727 0.116422 0.208930 255 0 0
0.214335 -0.037057 -0.234146 255 0 0
0.121604 -0.157787 0.408707 255 0 0
-0.191611 -0.113677 0.326812 255 0 0
-0.065371 0.140754 -0.196020 255 0 0
-0.033576 0.197927 0.208911 255 0 0
-0.224008 -0.097242 -0.009029 255 0 0
-0.156650 0.162526 0.180378 255 0 0
0.168799 -0.052213 -0.458080 255 0 0
0.065183 0.072158 -0.336998 255 0 0
0.158311 -0.090653 -0.314071 255 0 0
0.155878 0.166685 0.107511 255 0 0
0.137349 0.177972 0.255050 255 0 0
-0.203919 0.048400 0.268198 255 0 0
0.181822 -0.129432 0.432261 255 0 0
0.191259 0.031099 -0.097547 255 0 0
0.065655 -0.129579 0.472971 255 0 0
-0.200111 -0.141141 -0.125854 255 0 0
-0.211375 -0.078636 -0.179519 255 0 0
0.045983 0.194137 0.248925 255 0 0
0.178955 0.099503 -0.006465 255 0 0
-0.156230 0.168350 0.253644 255 0 0
0.204747 -0.040988 -0.309599 255 0 0
-0.052111 -0.034171 0.478705 255 0 0
-0.137294 -0.139526 -0.427460 255 0 0
-0.005076 -0.038083 0.472540 255 0 0
-0.042645 0.208863 0.129289 255 0 0
-0.168914 0.103720 0.253855 255 0 0
-0.214191 -0.025563 -0.075680 255 0 0
-0.221334 -0.040348 -0.033329 255 0 0
0.020321 0.050275 -0.347749 255 0 0
-0.203434 -0.123603 0.334366 255 0 0
-0.126492 0.139791 -0.162342 255 0 0
0.026206 0.049136 -0.416293 255 0 0
0.133752 0.144391 -0.144003 255 0 0
0.208209 -0.026182 -0.190416 255 0 0
0.086685 0.056993 0.466903 255 0 0
0.212604 -0.102710 0.129463 255 0 0
0.155775 0.160059 -0.008003 255 0 0
0.221754 -0.049246 -0.203331 255 0 0
-0.196649 0.032932 0.141133 255 0 0
-0.101046 -0.029062 -0.468640 255 0 0
0.031529 0.157408 0.343807 255 0 0
0.207348 -0.003391 0.081289 255 0 0
0.005609 0.171630 -0.146604 255 0 0
-0.214819 -0.057380 0.101911 255 0 0
0.179259 0.087964 0.407616 255 0 0
-0.212205 -0.073255 -0.223401 255 0 0
-0.201174 0.012494 -0.076144 255 0 0
0.221574 -0.020716 -0.047451 255 0 0
0.214236 0.006286 -0.163025 255 0 0
0.070432 0.135052 -0.206718 255 0 0
-0.188933 0.036408 -0.331767 255 0 0
-0.135235 -0.043609 -0.463870 255 0 0
-0.188316 0.083533 0.208701 255 0 0
0.051531 -0.035682 0.472231 255 0 0
-0.133840 0.057953 -0.283337 255 0 0
-0.038474 0.193482 0.173099 255 0 0
-0.169924 0.084136 -0.184997 255 0 0
0.025363 0.073001 -0.332307 255 0 0
-0.183544 0.043143 0.088570 255 0 0
0.104891 0.053484 -0.386056 255 0 0
0.009833 -0.162268 0.101925 255 0 0
-0.186483 0.062449 -0.171279 255 0 0
-0.213490 -0.018414 0.323210 255 0 0
-0.200278 0.026812 -0.210642 255 0 0
-0.110909 0.135294 -0.162282 255 0 0
-0.140377 0.151628 -0.119080 255 0 0
-0.172175 0.111948 -0.036325 255 0 0
-0.024752 0.202650 0.193913 255 0 0
-0.208005 -0.086403 -0.428550 255 0 0
0.066713 0.205339 0.000569 255 0 0
-0.170437 0.108780 -0.138579 255 0 0
0.000624 0.073661 0.452707 255 0 0
0.033036 0.205426 0.183459 255 0 0
0.179391 0.102743 -0.085404 255 0 0
0.210327 -0.020164 -0.317187 255 0 0
-0.065980 0.184533 -0.095414 255 0 0
-0.199292 -0.147956 0.240201 255 0 0
0.137892 -0.139645 0.463896 255 0 0
0.158585 0.176388 0.104125 255 0 0
0.203772 -0.098495 0.328732 255 0 0
-0.210614 -0.157569 -0.278823 255 0 0
0.185483 0.084903 0.187773 255 0 0
-0.150856 0.167839 0.287276 255 0 0
-0.158901 0.147355 0.184482 255 0 0
-0.005476 0.076273 0.469684 255 0 0
0.220270 -0.050662 -0.078041 255 0 0
0.194319 0.059563 0.295591 255 0 0
-0.146796 -0.156873 0.025583 255 0 0
0.105702 -0.044430 0.471317 255 0 0
-0.136851 0.107686 -0.216007 255 0 0
-0.186380 -0.106679 0.269343 255 0 0
0.118642 0.205583 0.183994 255 0 0
-0.210906 -0.124743 -0.240761 255 0 0
0.216591 -0.043984 -0.050739 255 0 0
0.183183 -0.120139 -0.444298 255 0 0
0.199059 -0.033808 0.398203 255 0 0
0.206658 -0.120168 -0.166342 255 0 0
0.200399 -0.120295 0.311884 255 0 0
-0.038818 0.109558 -0.212848 255 0 0
-0.195664 0.048938 -0.146115 255 0 0
-0.186100 0.089372 -0.016957 255 0 0
-0.044073 0.204978 0.222316 255 0 0
0.163157 0.143460 -0.015930 255 0 0
0.177268 -0.135728 -0.446603 255 0 0
-0.219688 -0.060614 -0.251858 255 0 0
0.052827 0.199120 -0.076612 255 0 0
0.122631 0.203667 -0.009910 255 0 0
0.168278 0.092558 0.400711 255 0 0
0.082109 -0.162468 -0.395946 255 0 0
-0.166842 -0.092901 -0.458575 255 0 0
-0.058171 -0.152631 -0.454847 255 0 0
-0.020157 -0.167950 0.339082 255 0 0
-0.044360 0.080841 0.459375 255 0 0
-0.216182 -0.015475 -0.141488 255 0 0
-0.171836 -0.002341 -0.440908 255 0 0
0.206946 -0.087617 0.243492 255 0 0
0.215898 -0.050081 -0.383292 255 0 0
0.033651 -0.144968 -0.403635 255 0 0
0.123392 -0.142708 -0.391805 255 0 0
-0.039179 -0.163658 0.302949 255 0 0
-0.002809 -0.154392 0.292473 255 0 0
-0.075225 -0.157914 -0.308368 255 0 0
-0.153184 -0.164874 -0.064222 255 0 0
-0.083576 0.204944 0.222161 255 0 0
0.153967 0.137265 0.394794 255 0 0
-0.202459 -0.134952 -0.255008 255 0 0
-0.151895 0.166643 0.017238 255 0 0
0.078738 -0.142340 -0.470069 255 0 0
0.005759 0.143388 0.415992 255 0 0
0.214500 -0.042247 -0.381492 255 0 0
0.147577 -0.111812 0.454950 255 0 0
-0.102851 -0.113908 -0.462316 255 0 0
-0.196880 -0.032706 -0.395890 255 0 0
-0.194022 -0.097635 -0.287410 255 0 0
0.187739 0.010843 -0.371754 255 0 0
-0.214830 -0.014913 0.267695 255 0 0
-0.151923 0.185188 0.044723 255 0 0
0.201688 0.049167 0.236986 255 0 0
-0.196897 0.047918 0.404843 255 0 0
-0.200514 -0.100965 0.264624 255 0 0
-0.133604 0.190630 0.002337 255 0 0
-0.110008 -0.126896 -0.463869 255 0 0
-0.202079 -0.123874 0.136043 255 0 0
-0.111870 -0.085707 0.481128 255 0 0
-0.163019 0.140307 -0.052072 255 0 0
-0.037749 0.026694 -0.454335 255 0 0
-0.208786 -0.004352 0.313598 255 0 0
-0.067114 0.110948 -0.239818 255 0 0
-0.197275 -0.003867 -0.294716 255 0 0
0.198282 0.060337 0.124892 255 0 0
-0.042915 0.187045 -0.069604 255 0 0
-0.196649 0.069202 0.292545 255 0 0
-0.197190 0.044007 -0.078867 255 0 0
0.219937 -0.059190 -0.133119 255 0 0
-0.014247 0.134644 -0.163958 255 0 0
0.182353 0.028493 -0.342279 255 0 0
0.123932 0.144417 -0.158391 255 0 0
-0.199585 0.051822 -0.176331 255 0 0
-0.155726 0.115665 0.034381 255 0 0
0.163644 0.046363 0.423281 255 0 0
0.138567 0.191766 0.109863 255 0 0
-0.189994 0.020246 0.134033 255 0 0
-0.009861 0.168599 0.330711 255 0 0
-0.218462 -0.049503 -0.097037 255 0 0
-0.211868 -0.099231 0.125207 255 0 0
0.214747 -0.075352 0.249935 255 0 0
-0.194411 -0.150454 -0.096495 255 0 0
-0.125337 -0.034326 -0.466903 255 0 0
-0.141075 0.064577 -0.302910 255 0 0
0.142505 -0.168748 -0.193647 255 0 0
0.221891 -0.136325 0.234616 255 0 0
0.055839 -0.014863 0.460296 255 0 0
-0.198199 0.029479 -0.086031 255 0 0
-0.208858 -0.092785 -0.425553 255 0 0
-0.197092 -0.165694 0.136774 255 0 0
-0.039371 0.174323 0.364183 255 0 0
0.178883 -0.046805 0.410129 255 0 0
0.214499 -0.048844 -0.363193 255 0 0
-0.138154 0.148533 0.340797 255 0 0
-0.159187 0.118788 0.264636 255 0 0
0.171566 -0.015176 0.423853 255 0 0
-0.081450 0.196401 0.215812 255 0 0
-0.182378 0.059073 -0.124837 255 0 0
0.205217 0.106387 -0.141920 255 0 0
-0.153041 0.120126 -0.127360 255 0 0
-0.200133 0.016610 -0.322326 255 0 0
-0.199272 0.009651 -0.155957 255 0 0
-0.191504 0.055219 0.034537 255 0 0
0.150860 0.181667 0.165433 255 0 0
0.143333 -0.079672 0.470095 255 0 0
-0.085947 0.063498 -0.367408 255 0 0
-0.196853 0.059624 0.009411 255 0 0
0.209436 0.032490 0.358912 255 0 0
0.175042 0.095391 0.026339 255 0 0
-0.185822 0.068430 0.258715 255 0 0
-0.125142 -0.164580 0.203952 255 0 0
-0.208947 -0.030831 0.032148 255 0 0
0.164738 0.004456 0.446658 255 0 0
0.023241 -0.107588 -0.483551 255 0 0
0.209679 -0.028666 0.131756 255 0 0
0.165247 0.088182 -0.212258 255 0 0
-0.224858 -0.081501 0.169690 255 0 0
-0.069787 0.050214 -0.400676 255 0 0
0.057526 -0.088331 0.489623 255 0 0
-0.039726 -0.086431 -0.498670 255 0 0
0.059129 -0.013392 0.472691 255 0 0
-0.208174 -0.029373 -0.051420 255 0 0
0.172047 -0.154638 -0.284035 255 0 0
0.085235 0.201770 0.186438 255 0 0
-0.160857 0.092067 -0.213219 255 0 0
0.196823 -0.002135 0.401481 255 0 0
0.151512 -0.100837 0.414478 255 0 0
0.019633 0.195037 -0.075254 255 0 0
-0.007560 -0.157882 -0.346619 255 0 0
0.193671 -0.150415 -0.220067 255 0 0
0.073256 0.191396 -0.025788 255 0 0
0.053333 -0.138456 -0.103420 255 0 0
0.145990 0.014495 -0.444529 255 0 0
-0.009298 0.207231 0.170823 255 0 0
0.017898 0.153728 0.401969 255 0 0
-0.200385 -0.122793 0.402516 255 0 0
0.133218 -0.162572 -0.053820 255 0 0
-0.168610 -0.087397 0.438030 255 0 0
0.131979 -0.042900 0.463815 255 0 0
0.205400 0.034569 -0.009219 255 0 0
0.224061 -0.053389 0.175523 255 0 0
-0.042223 -0.055258 0.483955 255 0 0
0.191086 0.024256 0.383954 255 0 0
0.180256 -0.181077 0.383910 255 0 0
0.081629 -0.139601 -0.296270 255 0 0
0.192357 0.050873 0.145406 255 0 0
0.012670 0.177127 -0.122212 255 0 0
0.207064 -0.004155 0.022069 255 0 0
0.090920 0.207436 0.118966 255 0 0
-0.211300 -0.131900 0.126493 255 0 0
-0.047278 -0.003250 -0.477085 255 0 0
0.213022 -0.005172 -0.204351 255 0 0
-0.217385 -0.010876 0.248323 255 0 0
-0.075371 0.021232 0.104833 255 0 0
-0.106856 0.179538 0.312850 255 0 0
-0.197662 -0.127410 -0.441046 255 0 0
0.202209 -0.064398 -0.307351 255 0 0
0.122518 -0.060184 -0.410470 255 0 0
-0.072407 -0.069544 0.494710 255 0 0
0.189146 0.038805 0.018601 255 0 0
-0.145945 0.182354 0.144058 255 0 0
0.010603 0.159820 0.372034 255 0 0
-0.065691 0.185502 -0.063556 255 0 0
-0.176446 0.102196 0.095608 255 0 0
-0.117235 -0.152161 -0.038143 255 0 0
-0.049301 0.033471 -0.446805 255 0 0
-0.006816 -0.156572 -0.442837 255 0 0
0.216750 -0.139454 -0.011782 255 0 0
0.099666 0.189112 0.247269 255 0 0
-0.149995 -0.156083 0.045835 255 0 0
0.204829 0.026178 0.384210 255 0 0
-0.155098 0.018505 0.437644 255 0 0
-0.186179 0.009055 -0.396371 255 0 0
0.030139 0.019292 0.464705 255 0 0
0.191085 0.083573 0.138371 255 0 0
0.133229 0.190810 0.217557 255 0 0
-0.037524 0.010547 -0.475692 255 0 0
0.191903 0.076772 -0.149109 255 0 0
-0.026109 0.119632 0.445523 255 0 0
-0.064427 0.125492 -0.226625 255 0 0
0.136776 0.204119 0.110307 255 0 0
-0.161463 0.136996 0.283613 255 0 0
-0.083555 0.159779 0.366090 255 0 0
0.076269 0.189584 0.290425 255 0 0
0.001802 -0.151554 0.485171 255 0 0
-0.222345 -0.119467 0.019654 255 0 0
0.036573 -0.144598 -0.347946 255 0 0
-0.207225 0.042373 0.351067 255 0 0
0.209220 0.035219 0.097843 255 0 0
-0.199180 -0.135901 0.401463 255 0 0
0.005796 0.130157 0.438705 255 0 0
0.210320 0.038772 0.281489 255 0 0
0.144941 -0.052372 -0.471147 255 0 0
-0.223246 -0.063993 -0.138715 255 0 0
0.026253 -0.007846 0.477495 255 0 0
0.208731 -0.036475 0.313976 255 0 0
-0.222558 -0.079709 -0.217048 255 0 0
-0.121808 0.192960 -0.044847 255 0 0
-0.218873 -0.032123 -0.001743 255 0 0
-0.165487 0.007056 0.437975 255 0 0
-0.168777 -0.042593 -0.452478 255 0 0
0.160749 0.161944 0.155276 255 0 0
-0.203724 -0.064243 -0.103456 255 0 0
-0.200537 -0.145820 -0.100171 255 0 0
0.145888 0.129313 -0.108836 255 0 0
-0.213910 -0.138807 -0.163788 255 0 0
0.183497 0.045354 0.032483 255 0 0
-0.094944 0.206047 0.197727 255 0 0
-0.121440 0.204124 0.004042 255 0 0
0.212378 -0.103262 -0.145166 255 0 0
-0.210410 0.012862 0.116900 255 0 0
0.057369 0.070458 -0.319611 255 0 0
-0.216843 -0.039411 -0.203141 255 0 0
-0.064385 0.202181 0.060636 255 0 0
-0.091301 0.092181 -0.268144 255 0 0
-0.001609 0.103263 0.443420 255 0 0
-0.222387 -0.021183 0.147930 255 0 0
-0.201145 -0.006949 -0.273972 255 0 0
0.101990 -0.018321 0.472766 255 0 0
0.038055 0.124491 -0.215400 255 0 0
0.167361 -0.073487 -0.466757 255 0 0
0.083255 -0.152775 -0.074289 255 0 0
-0.210562 -0.075719 -0.422317 255 0 0
-0.222486 -0.121227 0.079795 255 0 0
-0.096919 0.140203 -0.175855 255 0 0
-0.128494 -0.063327 -0.476231 255 0 0
-0.010616 -0.049940 -0.483848 255 0 0
-0.198457 0.016500 -0.133210 255 0 0
-0.036221 0.210375 0.155479 255 0 0
-0.073736 -0.161318 -0.078161 255 0 0
-0.184561 0.000034 -0.415115 255 0 0
-0.205775 -0.134731 0.175383 255 0 0
-0.171995 0.121890 -0.034446 255 0 0
-0.179356 0.116884 0.043590 255 0 0
-0.199711 0.075543 0.203243 255 0 0
-0.100599 0.059985 0.453586 255 0 0
0.201251 -0.171330 -0.401898 255 0 0
-0.105400 0.184036 0.130724 255 0 0
-0.133453 0.202799 0.045645 255 0 0
0.021789 -0.156195 0.482413 255 0 0
0.188333 -0.180486 0.355558 255 0 0
0.219579 -0.076408 -0.116663 255 0 0
0.135707 0.116601 0.431649 255 0 0
0.115697 0.106374 0.449393 255 0 0
-0.103168 0.176030 0.278713 255 0 0
0.215024 -0.042059 -0.330979 255 0 0
-0.204834 -0.046495 0.353519 255 0 0
-0.078422 0.044850 -0.421106 255 0 0
-0.160550 0.153383 0.043137 255 0 0
-0.066735 0.136351 -0.203781 255 0 0
0.202348 -0.136704 -0.268336 255 0 0
-0.017147 0.205540 0.181790 255 0 0
0.100844 0.193624 0.238328 255 0 0
-0.121368 0.055544 -0.361166 255 0 0
0.198821 0.020881 0.339200 255 0 0
0.114809 0.194899 -0.029689 255 0 0
-0.154035 0.163109 0.073059 255 0 0
-0.208776 0.021485 -0.038654 255 0 0
-0.082284 0.195757 0.068661 255 0 0
-0.214933 -0.085126 -0.415686 255 0 0
-0.203813 -0.121097 0.181045 255 0 0
-0.160811 0.102435 0.001922 255 0 0
-0.190244 -0.090609 0.422513 255 0 0
0.153225 0.146634 -0.028121 255 0 0
-0.221886 -0.110691 0.171487 255 0 0
0.151956 0.164932 0.151337 255 0 0
0.023531 0.060166 -0.363396 255 0 0
0.013316 -0.162702 0.246060 255 0 0
0.152213 0.153438 0.230251 255 0 0
-0.192403 0.070020 0.017911 255 0 0
0.087903 -0.150804 -0.452698 255 0 0
-0.032448 -0.062697 -0.493354 255 0 0
0.185733 0.102876 0.080074 255 0 0
0.149085 0.158977 0.286244 255 0 0
0.222489 -0.047300 0.190255 255 0 0
0.182345 0.072432 0.020553 255 0 0
0.172837 0.121084 0.164346 255 0 0
-0.015053 0.209378 0.093528 255 0 0
0.098025 0.007990 -0.475466 255 0 0
-0.209088 -0.073787 -0.331099 255 0 0
0.203051 -0.189634 -0.384391 255 0 0
0.205883 -0.035097 0.369948 255 0 0
-0.176456 0.084303 -0.018793 255 0 0
-0.114436 -0.080708 -0.485473 255 0 0
-0.107289 -0.150014 0.008861 255 0 0
-0.018677 0.204299 -0.041412 255 0 0
-0.013288 0.149541 -0.182026 255 0 0
-0.205707 -0.017066 0.329195 255 0 0
-0.207577 -0.004587 -0.170454 255 0 0
0.094037 -0.100353 0.472399 255 0 0
0.191562 -0.134013 0.037639 255 0 0
0.126561 0.134012 0.432017 255 0 0
0.192607 0.049388 0.248900 255 0 0
0.116590 0.052196 -0.386976 255 0 0
0.211668 -0.056674 0.390474 255 0 0
-0.225553 -0.070212 -0.036818 255 0 0
-0.143919 0.151545 0.326433 255 0 0
0.210028 -0.166053 -0.382065 255 0 0
-0.218564 -0.063631 -0.062398 255 0 0
-0.012367 0.205880 0.212324 255 0 0
0.212259 -0.001914 -0.269073 255 0 0
-0.116596 -0.164262 -0.305624 255 0 0
0.197552 0.066283 0.002071 255 0 0
-0.214845 -0.023069 -0.130025 255 0 0
0.016212 -0.163855 0.240855 255 0 0
0.131038 0.182754 -0.059912 255 0 0
0.012459 0.032618 -0.439698 255 0 0
0.216040 0.007239 0.027873 255 0 0
-0.215821 -0.107714 0.028130 255 0 0
-0.152730 -0.104286 -0.246305 255 0 0
0.203179 0.022778 -0.224899 255 0 0
0.183636 0.028698 0.367687 255 0 0
0.063787 -0.047517 0.479929 255 0 0
-0.080760 0.137392 0.435451 255 0 0
0.135158 0.101075 -0.211876 255 0 0
0.128921 0.201405 0.000882 255 0 0
0.159569 0.105002 -0.089575 255 0 0
0.173408 0.129024 0.215946 255 0 0
0.084055 -0.158744 -0.051092 255 0 0
-0.164716 0.122499 0.352977 255 0 0
0.104883 0.183613 0.312483 255 0 0
0.059314 -0.045960 -0.483056 255 0 0
0.011277 -0.037918 -0.484080 255 0 0
-0.126885 0.189092 0.282325 255 0 0
0.019676 0.061210 -0.368392 255 0 0
0.168593 0.135525 0.000614 255 0 0
0.205388 0.004152 0.030708 255 0 0
-0.083048 0.084641 -0.291842 255 0 0
0.174348 0.108354 0.360609 255 0 0
-0.206244 0.012993 0.370813 255 0 0
0.146709 0.016686 -0.396160 255 0 0
-0.136316 0.120501 0.420586 255 0 0
-0.199160 0.030661 -0.079674 255 0 0
0.076412 0.199784 -0.021442 255 0 0
-0.225116 -0.088699 0.113604 255 0 0
0.214373 -0.038086 -0.286630 255 0 0
0.176738 0.050784 0.417764 255 0 0
-0.032141 0.129523 -0.228054 255 0 0
0.011319 -0.109137 0.492100 255 0 0
0.077048 -0.015263 -0.473684 255 0 0
0.186901 0.080606 0.193946 255 0 0
-0.003294 -0.168146 0.141616 0 255 0
-0.068987 0.187159 -0.138058 0 255 0
-0.165928 0.011758 -0.456193 0 255 0
0.226948 -0.030501 0.198498 0 255 0
-0.080504 -0.170483 -0.306952 0 255 0
0.033083 -0.011334 -0.490385 0 255 0
0.407178 0.172816 0.444171 0 255 0
0.017553 0.072527 -0.386416 0 255 0
0.061257 0.144478 0.440383 0 255 0
0.019874 0.221896 -0.000189 0 255 0
-0.402263 -0.249151 -0.347876 0 255 0
-0.220845 0.048757 0.339658 0 255 0
-0.149535 -0.181625 0.438044 0 255 0
0.239210 -0.053443 -0.044160 0 255 0
0.236452 -0.105582 -0.135347 0 255 0
0.149981 0.035149 0.465984 0 255 0
0.157686 0.085422 -0.289702 0 255 0
-0.090371 -0.161828 0.486142 0 255 0
-0.203623 0.075231 -0.185676 0 255 0
0.154793 0.101431 -0.271944 0 255 0
-0.185441 0.108735 0.200998 0 255 0
-0.089879 0.109513 -0.273598 0 255 0
-0.089684 0.214678 0.053233 0 255 0
0.223646 0.019937 -0.204903 0 255 0
0.041473 0.104670 -0.317238 0 255 0
0.236786 -0.004874 0.165363 0 255 0
-0.200177 -0.213102 0.371272 0 255 0
0.196582 -0.060928 -0.372428 0 255 0
-0.107037 -0.380995 -0.464102 0 255 0
0.080043 -0.169718 -0.435592 0 255 0
0.222850 -0.030211 0.342708 0 255 0
-0.197006 0.104791 0.156381 0 255 0
-0.225882 -0.121823 0.161088 0 255 0
0.243576 -0.112039 -0.135735 0 255 0
-0.220018 0.094609 0.341782 0 255 0
0.007749 0.159098 -0.193450 0 255 0
0.093875 0.054028 -0.418715 0 255 0
0.005895 -0.170514 0.058454 0 255 0
-0.226776 -0.055876 0.358314 0 255 0
0.151329 0.183704 0.276742 0 255 0
-0.233692 -0.410700 0.008993 0 255 0
-0.199442 0.099958 0.211625 0 255 0
-0.228394 -0.007377 0.119317 0 255 0
-0.240252 -0.010197 0.031771 0 255 0
0.027565 0.212395 -0.165517 0 255 0
-0.211290 0.008888 -0.335355 0 255 0
-0.027541 0.043947 0.467211 0 255 0
-0.061705 0.186429 0.370909 0 255 0
0.233063 -0.066283 0.193287 0 255 0
-0.106407 -0.034146 0.490655 0 255 0
0.135345 0.037032 -0.435366 0 255 0
-0.167162 0.150347 0.283356 0 255 0
-0.168424 0.166733 0.123205 0 255 0
0.231499 -0.100643 0.057377 0 255 0
0.225937 -0.123574 -0.111128 0 255 0
-0.201212 0.082760 0.341375 0 255 0
-0.076440 0.214496 0.150364 0 255 0
-0.359757 0.291834 0.463974 0 255 0
0.205470 -0.103182 0.431124 0 255 0
0.006480 -0.174008 -0.411852 0 255 0
-0.210628 -0.157567 0.172280 0 255 0
0.207185 0.468254 0.395875 0 255 0
0.373528 0.203247 -0.331516 0 255 0
-0.211736 -0.010156 0.407441 0 255 0
-0.340243 0.228203 0.347172 0 255 0
-0.416059 0.379936 0.450326 0 255 0
-0.103244 0.078855 -0.359427 0 255 0
-0.110714 0.148915 0.429803 0 255 0
-0.070152 0.183651 -0.127146 0 255 0
0.030739 0.181329 -0.145172 0 255 0
-0.170880 -0.054383 0.475972 0 255 0
-0.113047 -0.039575 -0.483966 0 255 0
-0.183817 0.164961 0.191387 0 255 0
0.163597 -0.042362 0.466572 0 255 0
-0.285871 -0.405866 -0.107153 0 255 0
-0.313155 0.165545 -0.478397 0 255 0
-0.157808 0.186839 0.061743 0 255 0
0.113070 0.049341 -0.422919 0 255 0
0.148532 -0.140701 0.466831 0 255 0
0.227059 -0.037610 0.314473 0 255 0
-0.101450 -0.113355 0.494138 0 255 0
-0.158624 0.112617 -0.215663 0 255 0
0.157073 -0.170202 -0.184345 0 255 0
0.230131 -0.000675 0.142996 0 255 0
0.215248 0.005278 -0.194998 0 255 0
-0.134104 0.190074 -0.065093 0 255 0
-0.403304 0.015142 0.037950 0 255 0
0.222130 -0.001845 0.220545 0 255 0
0.134894 0.079484 -0.312423 0 255 0
-0.223833 -0.071375 -0.432348 0 255 0
-0.175527 0.081627 -0.293426 0 255 0
-0.012090 0.048127 -0.469484 0 255 0
0.026427 0.119225 -0.255446 0 255 0
0.089072 0.081709 -0.385623 0 255 0
0.007496 -0.060470 -0.503085 0 255 0
-0.227927 -0.117281 0.207269 0 255 0
0.180065 0.124585 0.085547 0 255 0
-0.150084 -0.140620 -0.465823 0 255 0
0.134698 0.103765 -0.246255 0 255 0
-0.187663 -0.122507 0.309860 0 255 0
-0.229005 0.044388 0.389322 0 255 0
0.034812 -0.189501 -0.210324 0 255 0
0.336492 -0.239314 -0.156299 0 255 0
0.154759 0.184327 0.239113 0 255 0
-0.173143 0.139065 -0.020806 0 255 0
-0.211093 -0.100710 0.260976 0 255 0
0.230977 -0.139855 0.175976 0 255 0
-0.203497 0.050593 -0.096215 0 255 0
0.225476 -0.021634 -0.096198 0 255 0
-0.227061 -0.037519 0.264991 0 255 0
-0.121835 0.201333 -0.068953 0 255 0
0.174375 0.103507 0.418942 0 255 0
0.016329 0.163893 -0.173297 0 255 0
0.214048 -0.117097 -0.416597 0 255 0
-0.229893 -0.093955 -0.202203 0 255 0
-0.121882 0.276767 -0.250697 0 255 0
-0.138067 -0.116021 -0.480342 0 255 0
0.058490 0.169257 0.420629 0 255 0
-0.088782 0.174096 0.373527 0 255 0
-0.213466 0.043105 0.181359 0 255 0
0.109059 -0.168633 -0.079352 0 255 0
0.226986 -0.043399 0.267469 0 255 0
0.094002 0.200055 -0.069274 0 255 0
-0.223073 -0.010928 0.293025 0 255 0
-0.238430 -0.067685 -0.054725 0 255 0
0.233122 -0.094700 -0.066413 0 255 0
-0.059256 0.216069 0.300414 0 255 0
-0.499251 0.295147 -0.386762 0 255 0
-0.185094 -0.086199 -0.453067 0 255 0
0.004671 0.222228 0.137641 0 255 0
0.092275 0.162033 0.470656 0 255 0
-0.213857 0.034171 0.450566 0 255 0
-0.229440 -0.070179 0.018883 0 255 0
-0.106296 -0.126725 0.486921 0 255 0
0.160187 0.182127 0.140339 0 255 0
0.458618 0.449813 0.212249 0 255 0
0.178985 0.074592 -0.243259 0 255 0
0.176583 0.150799 -0.001560 0 255 0
-0.212613 -0.099725 0.410306 0 255 0
0.074386 -0.061607 0.498589 0 255 0
0.211449 0.088633 0.291426 0 255 0
0.229657 -0.002952 0.212692 0 255 0
-0.053869 -0.179965 0.198705 0 255 0
0.232557 -0.055821 0.249785 0 255 0
0.046393 -0.075121 0.510891 0 255 0
-0.213632 0.023794 -0.128009 0 255 0
0.042388 0.148496 0.482693 0 255 0
0.095711 0.205060 -0.061269 0 255 0
-0.033552 0.217423 0.003335 0 255 0
-0.134011 -0.120064 0.486754 0 255 0
-0.223508 -0.099596 -0.257630 0 255 0
-0.151984 0.192380 0.161374 0 255 0
0.202815 0.115110 0.126756 0 255 0
0.396027 0.062684 0.372577 0 255 0
0.011376 -0.377207 -0.037198 0 255 0
-0.192945 0.052254 -0.284054 0 255 0
0.219177 0.083728 -0.132827 0 255 0
0.230873 -0.013926 -0.239384 0 255 0
-0.118327 -0.171365 -0.274400 0 255 0
-0.056686 0.062724 0.471647 0 255 0
0.166916 0.148942 -0.056924 0 255 0
-0.018068 0.213704 0.017663 0 255 0
-0.136648 0.212957 0.268199 0 255 0
-0.244836 0.313592 0.254656 0 255 0
-0.234320 -0.032177 0.194889 0 255 0
-0.138882 -0.151436 -0.367290 0 255 0
0.158408 0.190085 0.174179 0 255 0
-0.210443 -0.004042 0.422956 0 255 0
-0.230486 -0.095057 -0.327965 0 255 0
0.226201 -0.030682 -0.028285 0 255 0
-0.034223 0.342692 -0.246105 0 255 0
0.195352 0.105870 0.274662 0 255 0
0.085314 0.026453 0.488362 0 255 0
0.031687 0.077543 -0.379729 0 255 0
-0.011432 -0.016925 0.500163 0 255 0
0.181174 0.118599 0.305849 0 255 0
-0.044524 0.219281 0.233054 0 255 0
-0.231237 0.085878 -0.128231 0 255 0
0.224029 -0.046208 -0.397886 0 255 0
-0.215182 0.051787 -0.143579 0 255 0
0.221341 0.016695 0.194139 0 255 0
-0.231692 -0.104891 -0.139051 0 255 0
0.225119 0.011980 -0.059502 0 255 0
-0.209636 0.032727 -0.322134 0 255 0
0.072119 0.161659 0.405577 0 255 0
-0.223202 -0.071197 0.343146 0 255 0
0.021231 0.225208 0.075434 0 255 0
0.221893 -0.176142 0.236102 0 255 0
-0.179688 -0.179832 0.211900 0 255 0
0.180057 0.112538 0.341991 0 255 0
-0.114141 0.048836 -0.435967 0 255 0
0.139075 -0.119496 0.479888 0 255 0
-0.186570 0.070217 0.437773 0 255 0
0.216598 -0.136778 -0.398291 0 255 0
-0.101162 0.155843 0.454510 0 255 0
0.044393 0.070344 -0.369529 0 255 0
-0.103544 0.134860 -0.212003 0 255 0
0.252048 0.183039 -0.488114 0 255 0
0.148028 0.227773 0.099898 0 255 0
-0.236127 -0.090488 -0.247460 0 255 0
0.041884 0.215974 0.172471 0 255 0
-0.495474 -0.258594 0.170901 0 255 0
0.048632 -0.100086 -0.507785 0 255 0
0.036268 0.184740 -0.139183 0 255 0
0.057712 0.021362 0.476308 0 255 0
-0.245962 -0.118016 0.228304 0 255 0
0.238372 -0.041229 0.197909 0 255 0
-0.171969 0.165229 0.029636 0 255 0
0.205391 0.102348 0.316806 0 255 0
0.002922 0.159501 0.462041 0 255 0
-0.139219 0.128388 0.437585 0 255 0
-0.038720 0.192977 -0.111166 0 255 0
-0.220152 0.033610 -0.248883 0 255 0
0.159842 -0.092972 -0.470872 0 255 0
-0.217465 -0.149368 0.265433 0 255 0
0.495931 -0.483593 -0.246167 0 255 0
0.155331 0.134962 0.415164 0 255 0
0.191567 0.098805 -0.007695 0 255 0
-0.229756 -0.083075 -0.075864 0 255 0
0.224680 -0.017198 -0.300138 0 255 0
-0.234060 -0.134881 -0.357239 0 255 0
0.463204 -0.327002 0.015476 0 255 0
-0.195923 -0.067863 0.441356 0 255 0
0.373028 0.006590 -0.081589 0 255 0
0.331937 -0.330003 0.366032 0 255 0
0.132096 0.140851 0.475339 0 255 0
0.020082 0.194349 -0.117142 0 255 0
0.326101 0.148595 -0.248029 0 255 0
0.231374 -0.122202 0.212810 0 255 0
0.057339 0.203785 -0.081091 0 255 0
-0.055307 -0.188717 -0.316309 0 255 0
0.226200 -0.074289 -0.158735 0 255 0
-0.229592 -0.035610 0.372368 0 255 0
0.199646 -0.138766 -0.439676 0 255 0
-0.236366 0.003256 0.322387 0 255 0
-0.196640 0.019842 -0.396678 0 255 0
-0.234794 -0.112769 0.168645 0 255 0
-0.191744 -0.025505 0.429701 0 255 0
-0.017977 0.153680 0.445681 0 255 0
0.065892 -0.049592 0.494958 0 255 0
0.118065 -0.135607 -0.473040 0 255 0
0.391002 0.495874 0.499222 0 255 0
0.125844 -0.171437 -0.192765 0 255 0
0.007998 -0.125513 0.499548 0 255 0
-0.154407 0.175226 0.240973 0 255 0
0.042705 -0.387326 0.459200 0 255 0
-0.091314 0.146886 -0.188050 0 255 0
-0.121601 -0.110042 -0.487737 0 255 0
-0.230666 -0.098516 0.224807 0 255 0
0.037565 0.217945 0.070660 0 255 0
0.221554 -0.010907 0.314548 0 255 0
-0.216103 0.001868 -0.258367 0 255 0
0.210190 0.041995 -0.253975 0 255 0
-0.064142 0.080310 -0.347227 0 255 0
0.135332 -0.092089 0.486290 0 255 0
0.201541 -0.014023 -0.429400 0 255 0
-0.194013 -0.096871 0.441898 0 255 0
0.028353 -0.074552 -0.500659 0 255 0
-0.424936 -0.275693 0.277080 0 255 0
-0.221407 -0.023830 -0.131814 0 255 0
0.159898 0.133404 -0.205534 0 255 0
0.096689 -0.165609 -0.420603 0 255 0
0.001399 0.153057 0.440968 0 255 0
-0.303831 -0.394353 0.227299 0 255 0
0.036175 0.076286 -0.344024 0 255 0
-0.363087 -0.042647 0.100895 0 255 0
-0.107580 0.171261 -0.137693 0 255 0
-0.231488 -0.061183 -0.040784 0 255 0
0.198880 0.116180 -0.148249 0 255 0
0.229179 -0.011285 -0.320994 0 255 0
0.242482 0.004223 0.261351 0 255 0
0.222435 0.077637 0.205557 0 255 0
0.052321 -0.064327 -0.502893 0 255 0
0.171138 0.161045 0.214287 0 255 0
0.165587 0.145754 0.358528 0 255 0
-0.196788 -0.127980 0.427072 0 255 0
-0.184365 -0.169083 0.199599 0 255 0
-0.054324 0.214152 0.214894 0 255 0
0.186904 0.143934 0.212334 0 255 0
-0.175280 0.139487 0.162814 0 255 0
-0.233794 -0.048238 -0.202177 0 255 0
0.221193 0.009353 0.178278 0 255 0
0.185387 -0.159785 0.426243 0 255 0
-0.242642 -0.071804 0.115388 0 255 0
-0.181466 0.113181 0.373815 0 255 0
0.407698 -0.301059 -0.462547 0 255 0
0.065068 0.224852 0.055434 0 255 0
0.234971 -0.006373 -0.013656 0 255 0
0.156793 -0.156698 -0.466006 0 255 0
0.038820 0.128232 -0.249306 0 255 0
-0.069686 0.185235 0.321015 0 255 0
-0.121504 -0.081167 -0.488405 0 255 0
0.126291 -0.465635 -0.332611 0 255 0
-0.180403 0.119348 0.015843 0 255 0
0.139217 0.134615 -0.200660 0 255 0
-0.139282 0.199881 -0.058232 0 255 0
0.017517 -0.048653 0.495979 0 255 0
0.240523 -0.059407 -0.043346 0 255 0
-0.211071 0.048168 -0.091172 0 255 0
0.228131 -0.092209 -0.183388 0 255 0
-0.223513 -0.016811 -0.195742 0 255 0
-0.231669 -0.053939 -0.082356 0 255 0
-0.297533 -0.415522 -0.290551 0 255 0
-0.038452 0.218068 -0.035053 0 255 0
-0.020552 -0.023015 -0.500071 0 255 0
0.172997 -0.091275 -0.332210 0 255 0
-0.028398 -0.079472 0.500802 0 255 0
0.128765 0.215734 0.035576 0 255 0
0.164189 0.187898 -0.007276 0 255 0
0.132199 0.198799 0.240669 0 255 0
0.216999 -0.119929 -0.279851 0 255 0
0.228061 0.058301 -0.055014 0 255 0
0.094045 0.196197 -0.112901 0 255 0
0.070028 0.183619 0.378236 0 255 0
-0.187884 0.389185 -0.459015 0 255 0
-0.216034 -0.133575 -0.392644 0 255 0
0.179472 0.129637 0.170460 0 255 0
-0.210765 0.041008 0.159052 0 255 0
-0.170101 0.023595 -0.432827 0 255 0
-0.197553 0.086099 0.307349 0 255 0
-0.011491 -0.021441 -0.489910 0 255 0
0.180417 -0.055486 -0.310421 0 255 0
0.149663 0.046071 -0.420132 0 255 0
0.150435 0.189307 0.271991 0 255 0
-0.322167 0.139606 0.179621 0 255 0
-0.020218 0.026024 -0.472975 0 255 0
-0.217971 0.012550 0.139874 0 255 0
-0.002226 -0.091081 -0.515107 0 255 0
-0.187498 0.122113 0.332129 0 255 0
0.285283 0.035707 0.235740 0 255 0
0.170877 0.172903 0.015188 0 255 0
-0.097028 0.196983 0.370717 0 255 0
-0.003632 0.231055 0.051352 0 255 0
-0.220775 -0.162769 -0.216238 0 255 0
0.411974 -0.369970 -0.449107 0 255 0
0.137194 0.002393 -0.478518 0 255 0
-0.068369 -0.002998 0.490675 0 255 0
-0.206937 0.078090 0.032789 0 255 0
0.418314 0.419017 -0.144151 0 255 0
-0.159480 0.182139 0.169527 0 255 0
-0.138203 0.218204 0.064130 0 255 0
-0.116156 0.105332 0.456235 0 255 0
-0.217161 0.008877 -0.131346 0 255 0
-0.183598 0.084592 0.417083 0 255 0
-0.136425 0.191812 0.314282 0 255 0
-0.156977 -0.139822 -0.383461 0 255 0
-0.179830 0.102798 -0.156817 0 255 0
-0.053638 -0.193781 0.400899 0 255 0
-0.231487 -0.033820 -0.115741 0 255 0
0.009911 0.163828 -0.221977 0 255 0
-0.001193 0.102167 -0.313486 0 255 0
-0.245470 -0.108661 0.131453 0 255 0
0.115540 0.197855 -0.093384 0 255 0
-0.194309 -0.176974 -0.184126 0 255 0
-0.204815 0.078591 0.407877 0 255 0
-0.175511 -0.359484 -0.181553 0 255 0
-0.100151 0.152720 0.462804 0 255 0
-0.217069 0.038587 0.314507 0 255 0
0.164476 0.104068 0.412339 0 255 0
-0.182063 0.146299 0.246771 0 255 0
-0.216496 0.037394 0.120064 0 255 0
0.225240 -0.015716 0.189520 0 255 0
0.211336 0.048066 -0.005036 0 255 0
-0.081190 0.020486 -0.477120 0 255 0
0.048128 -0.175469 0.343896 0 255 0
-0.020456 0.216660 0.003272 0 255 0
0.047563 0.378841 -0.012612 0 255 0
0.011994 -0.180751 -0.383629 0 255 0
-0.227441 -0.026332 -0.185064 0 255 0
-0.210755 0.089275 0.018563 0 255 0
-0.225092 -0.078663 -0.158241 0 255 0
-0.080836 -0.107514 -0.497733 0 255 0
0.116507 0.209325 -0.034164 0 255 0
-0.099078 0.128999 0.468647 0 255 0
0.084466 0.188540 -0.110233 0 255 0
0.186281 0.111834 0.400703 0 255 0
-0.185733 -0.129616 0.299435 0 255 0
0.013665 0.134472 0.455238 0 255 0
0.018193 0.223174 0.190338 0 255 0
-0.106743 -0.173639 0.452410 0 255 0
-0.175141 0.160330 0.071151 0 255 0
0.218695 0.011666 -0.233218 0 255 0
0.192206 0.111785 0.198137 0 255 0
0.089649 0.080419 0.465857 0 255 0
0.224644 -0.051458 -0.298688 0 255 0
0.010816 -0.010489 -0.493487 0 255 0
0.252343 -0.047973 -0.024293 0 255 0
-0.145206 -0.041085 -0.477275 0 255 0
0.198696 -0.041714 0.434620 0 255 0
-0.216961 -0.010489 -0.301789 0 255 0
-0.184983 -0.098633 -0.327022 0 255 0
-0.087617 0.073765 -0.371307 0 255 0
0.066685 0.054080 0.478806 0 255 0
0.058567 0.172303 0.368254 0 255 0
-0.170819 0.130222 -0.110982 0 255 0
-0.206141 -0.126461 -0.453713 0 255 0
-0.239218 -0.093395 0.220038 0 255 0
0.186042 0.093138 -0.195635 0 255 0
0.145497 0.201894 0.161076 0 255 0
0.132640 0.221660 0.094666 0 255 0
-0.014332 0.040676 -0.473187 0 255 0
0.209314 -0.143713 -0.290465 0 255 0
0.078810 0.044295 -0.465378 0 255 0
-0.222736 -0.139068 -0.225059 0 255 0
0.201087 0.074448 -0.009375 0 255 0
-0.008739 -0.177259 -0.286061 0 255 0
0.222325 -0.088003 -0.270207 0 255 0
0.397057 -0.038363 -0.474647 0 255 0
-0.172113 0.135437 0.311548 0 255 0
0.228418 -0.112278 -0.129148 0 255 0
0.225691 0.045764 0.175845 0 255 0
0.086098 0.024961 0.487998 0 255 0
-0.104562 -0.432468 -0.164227 0 255 0
-0.027974 0.221712 0.114720 0 255 0
-0.186796 0.073397 0.451412 0 255 0
0.043210 0.090534 -0.373266 0 255 0
-0.099312 0.047476 0.478926 0 255 0
0.186197 0.110000 -0.028850 0 255 0
-0.046046 -0.171648 -0.120565 0 255 0
0.219290 -0.021327 -0.279790 0 255 0
-0.260000 0.034500 -0.248228 0 255 0
-0.028839 -0.168631 -0.022178 0 255 0
-0.161827 -0.061979 -0.474048 0 255 0
0.167433 0.169991 0.280857 0 255 0
-0.180373 0.095586 -0.150756 0 255 0
0.224422 -0.075414 -0.184463 0 255 0
0.146602 0.215763 0.052087 0 255 0
0.232849 -0.155165 0.200939 0 255 0
-0.089029 -0.057654 -0.504442 0 255 0
0.215811 0.031185 0.360969 0 255 0
-0.327427 0.424853 0.470025 0 255 0
0.219780 -0.085172 0.378989 0 255 0
0.356421 -0.016895 0.353372 0 255 0
0.085577 0.018727 -0.474337 0 255 0
0.225975 -0.131917 0.201750 0 255 0
-0.131146 -0.109953 0.480353 0 255 0
0.495862 0.405197 -0.367974 0 255 0
0.218839 -0.026388 -0.373253 0 255 0
0.197645 -0.215892 -0.352951 0 255 0
0.214452 0.046170 0.152074 0 255 0
-0.115870 0.044131 -0.427742 0 255 0
-0.010384 0.222414 0.137775 0 255 0
-0.228774 -0.042129 0.158709 0 255 0
0.200337 0.078778 -0.122678 0 255 0
-0.090799 0.029927 -0.476440 0 255 0
-0.215750 -0.005871 -0.310978 0 255 0
-0.211994 0.011350 0.404695 0 255 0
-0.214308 -0.068194 -0.363761 0 255 0
-0.210566 0.057242 -0.107557 0 255 0
0.187910 -0.084915 -0.461822 0 255 0
-0.194574 -0.089400 0.438732 0 255 0
0.213598 0.055090 0.229999 0 255 0
0.232386 -0.058552 0.101169 0 255 0
-0.118486 0.186763 -0.089006 0 255 0
0.192965 -0.143978 0.433583 0 255 0
0.142450 0.176516 0.372839 0 255 0
-0.228027 -0.083718 0.033135 0 255 0
0.166551 0.163245 -0.099383 0 255 0
0.206928 0.088020 -0.003783 0 255 0
-0.219501 0.042624 0.183409 0 255 0
-0.093903 0.222355 0.133822 0 255 0
0.032068 -0.038476 0.518036 0 255 0
0.184282 0.120627 0.330611 0 255 0
0.132957 -0.183285 0.244090 0 255 0
-0.157148 0.068613 -0.316215 0 255 0
0.056864 0.212530 0.256912 0 255 0
-0.152870 -0.202829 0.353730 0 255 0
0.202175 0.058452 -0.057354 0 255 0
-0.192714 0.088700 0.085442 0 255 0
-0.226945 -0.066556 0.380168 0 255 0
0.000900 -0.080662 0.501654 0 255 0
0.207302 0.024799 -0.310741 0 255 0
-0.219028 -0.143319 -0.310273 0 255 0
-0.221259 0.003233 -0.071117 0 255 0
-0.175463 0.165793 0.092538 0 255 0
0.221852 -0.018325 -0.078997 0 255 0
-0.244217 0.402101 0.242748 0 255 0
0.095178 0.144758 -0.213171 0 255 0
0.162386 0.143227 0.386775 0 255 0
-0.123380 0.077701 -0.323112 0 255 0
0.192618 0.097299 0.044169 0 255 0
-0.101568 0.206020 0.201112 0 255 0
-0.231221 -0.027765 0.231172 0 255 0
-0.232635 -0.119283 0.036133 0 255 0
-0.216870 0.016910 0.116162 0 255 0
-0.135908 -0.062948 0.369072 0 255 0
-0.050540 0.208614 -0.072399 0 255 0
0.203601 0.085488 0.284598 0 255 0
0.177478 0.122796 -0.085086 0 255 0
0.218854 0.014250 0.174681 0 255 0
0.057755 -0.169747 0.495625 0 255 0
-0.052577 0.056510 -0.417583 0 255 0
0.223420 -0.079262 -0.419859 0 255 0
-0.185305 0.120740 0.301436 0 255 0
-0.179700 0.122386 0.364626 0 255 0
-0.205964 -0.178105 -0.236917 0 255 0
0.213091 0.034288 -0.327976 0 255 0
0.107704 -0.107569 0.496018 0 255 0
0.233655 -0.037567 0.098114 0 255 0
-0.043876 -0.167695 -0.077110 0 255 0
-0.240310 -0.076935 0.274843 0 255 0
-0.138675 0.220159 0.195844 0 255 0
0.067244 0.209986 -0.058488 0 255 0
-0.125842 -0.074776 -0.269918 0 255 0
0.015743 -0.014159 0.484362 0 255 0
-0.180749 -0.091108 -0.343498 0 255 0
-0.226094 -0.091338 -0.048722 0 255 0
-0.221330 0.027350 0.303070 0 255 0
-0.151847 0.181814 0.321578 0 255 0
0.083865 -0.182509 -0.466788 0 255 0
0.209008 0.030128 -0.249255 0 255 0
0.096257 -0.072581 0.493980 0 255 0
-0.134584 -0.033861 0.513859 0 255 0
0.061361 -0.166155 -0.467482 0 255 0
-0.132960 -0.179636 -0.017883 0 255 0
-0.199677 -0.143994 -0.420960 0 255 0
-0.086919 0.189386 0.302264 0 255 0
0.181719 -0.027437 -0.451559 0 255 0
-0.077068 0.151201 0.450287 0 255 0
-0.245460 -0.104424 -0.234219 0 255 0
0.235426 -0.009526 -0.101861 0 255 0
0.230801 -0.067419 -0.029902 0 255 0
-0.149634 0.115291 0.427904 0 255 0
-0.185287 0.103974 0.361981 0 255 0
-0.102463 -0.090662 -0.489586 0 255 0
-0.207307 -0.018334 -0.379831 0 255 0
-0.194105 0.008554 0.449153 0 255 0
-0.194711 0.101500 0.150791 0 255 0
-0.165958 -0.125329 -0.298465 0 255 0
-0.244898 -0.122916 -0.205457 0 255 0
-0.074888 0.176892 0.382125 0 255 0
0.208452 0.079329 -0.049118 0 255 0
0.117827 -0.276676 0.044984 0 255 0
0.159563 0.203006 0.207489 0 255 0
0.170786 -0.167155 -0.140963 0 255 0
-0.210725 -0.127268 -0.449897 0 255 0
0.234132 -0.011653 -0.186575 0 255 0
-0.162780 0.139933 0.402893 0 255 0
-0.167691 -0.139280 -0.457064 0 255 0
-0.152635 -0.055282 0.489737 0 255 0
0.182825 -0.174827 -0.202220 0 255 0
0.017388 0.031772 -0.482240 0 255 0
0.232305 0.002812 0.214998 0 255 0
0.198507 0.118904 0.162770 0 255 0
-0.169104 0.157731 0.137905 0 255 0
-0.121976 -0.309575 -0.476711 0 255 0
0.233051 -0.066273 0.420934 0 255 0
-0.220602 0.037582 0.122787 0 255 0
-0.134075 -0.163418 0.263137 0 255 0
0.315576 -0.342125 0.229865 0 255 0
0.331665 0.256641 -0.496028 0 255 0
0.179612 0.163249 0.190849 0 255 0
0.047805 0.221346 0.224797 0 255 0
-0.224607 -0.091328 -0.408649 0 255 0
-0.142437 -0.013457 -0.470049 0 255 0
-0.109723 0.169668 0.381504 0 255 0
0.205176 -0.327236 0.351576 0 255 0
0.062189 0.217491 0.099920 0 255 0
-0.038530 0.181855 0.376701 0 255 0
-0.072227 0.145925 -0.196415 0 255 0
-0.227603 -0.075875 -0.097447 0 255 0
0.176265 0.027803 0.440655 0 255 0
-0.030679 -0.182759 -0.435485 0 255 0
-0.384555 0.320282 -0.421440 0 255 0
0.152326 -0.095564 -0.300213 0 255 0
-0.052442 0.223252 -0.037328 0 255 0
-0.150445 0.033210 -0.426082 0 255 0
0.217493 0.024918 0.161751 0 255 0
-0.203814 0.069051 0.255372 0 255 0
-0.075084 -0.102699 -0.501083 0 255 0
-0.150193 -0.156513 0.457857 0 255 0
0.136183 -0.129402 -0.479147 0 255 0
-0.227185 -0.068553 0.388472 0 255 0
-0.241895 -0.050136 0.124276 0 255 0
0.154344 0.215633 0.160207 0 255 0
-0.245624 -0.077053 -0.096062 0 255 0
-0.220308 -0.139974 -0.160453 0 255 0
-0.047320 0.195868 0.324038 0 255 0
0.078218 0.209071 0.248117 0 255 0
0.212657 0.027310 -0.184207 0 255 0
0.161001 -0.066032 0.477730 0 255 0
0.128526 0.216064 0.130136 0 255 0
0.036880 0.216491 0.032049 0 255 0
-0.227996 0.004079 0.235834 0 255 0
0.168490 0.082024 -0.295738 0 255 0
-0.078784 0.101712 0.480529 0 255 0
-0.472464 0.420410 -0.094924 0 255 0
0.182847 0.114801 0.076461 0 255 0
-0.043724 -0.093296 0.517691 0 255 0
-0.195794 0.151418 0.242895 0 255 0
0.179849 0.047635 -0.369140 0 255 0
0.221976 -0.011985 -0.139544 0 255 0
-0.130514 0.023592 -0.458312 0 255 0
-0.105992 0.432097 -0.082406 0 255 0
-0.003619 0.220964 0.086341 0 255 0
0.156769 0.105081 -0.219090 0 255 0
-0.053282 -0.176859 0.092993 0 255 0
0.190258 -0.010675 -0.458481 0 255 0
-0.042502 0.136220 0.464049 0 255 0
-0.024213 -0.088954 -0.508544 0 255 0
0.228756 -0.013291 0.035278 0 255 0
-0.224656 0.016180 0.131130 0 255 0
0.064733 0.212441 0.199912 0 255 0
-0.020553 0.208983 0.238559 0 255 0
-0.054481 -0.108209 -0.495213 0 255 0
-0.017694 -0.178265 0.293125 0 255 0
0.174757 0.106571 -0.166611 0 255 0
0.027208 0.164156 0.448278 0 255 0
0.214539 0.024321 0.117300 0 255 0
0.062084 0.162003 0.419753 0 255 0
-0.014375 0.189170 0.319608 0 255 0
0.134720 0.131558 -0.194977 0 255 0
0.219216 0.025268 -0.151617 0 255 0
-0.145118 0.195970 -0.034168 0 255 0
