ply
format ascii 1.0
element vertex 1209
property float x
property float y
property float z
property uchar red
property uchar green
property uchar blue
end_header
-0.219883 0.005291 -0.100793 -255 23 3
0.049016 -0.049140 0.493496 7 -227 115
-0.028897 0.061553 0.423345 -1 255 9
-0.159813 0.050503 -0.248585 -11 255 -11
-0.072666 -0.113742 -0.087109 -1 -255 -3
0.229346 0.035456 0.239756 213 135 -33
0.155456 -0.114555 0.080838 -1 -255 9
0.114477 -0.101908 -0.258614 255 -1 -1
-0.136111 0.102147 0.087597 -163 195 5
0.201303 -0.055108 0.199887 -1 -255 -3
0.207534 -0.114332 0.040103 -1 -255 -1
-0.228419 0.003171 0.104979 -253 25 -13
0.003142 0.112346 -0.092224 13 243 -73
-0.090949 0.097961 0.198440 159 193 43
-0.222425 -0.035744 -0.106058 255 5 -9
0.116818 -0.093065 0.410944 -33 -1 -253
0.000319 -0.098469 0.388296 -1 -213 141
-0.158827 -0.045349 0.481237 -61 -1 247
0.171297 -0.019536 -0.433579 59 221 -111
-0.226893 -0.025215 0.065497 -253 -33 -9
-0.050189 0.062899 0.241429 13 255 5
0.132037 0.092778 0.275973 93 235 31
-0.110109 -0.030491 0.489418 7 227 -115
-0.238932 -0.088674 0.210734 -239 -87 23
-0.173297 0.063065 -0.001776 -179 181 -3
-0.216375 -0.099374 -0.194176 -243 -67 43
0.036381 -0.112649 -0.226364 -1 -255 -3
0.082689 -0.000180 0.475431 35 45 249
-0.213048 0.026344 -0.260295 -197 159 25
-0.035702 -0.112564 0.169613 -1 -255 1
-0.035601 0.074159 0.338399 -9 255 -1
-0.017372 -0.112070 -0.313540 -1 -255 -3
0.217443 -0.038916 -0.357846 209 47 -139
0.097542 0.098315 0.252814 -231 105 31
-0.163872 0.090177 0.207044 -59 247 23
-0.023282 -0.112390 -0.261887 -1 -255 -3
-0.083021 -0.107354 -0.486354 -1 -255 -9
0.158774 0.014967 0.099386 -183 115 -135
-0.180193 0.082519 0.282801 -1 255 -3
-0.217543 0.052639 -0.164382 -17 241 -83
-0.013227 -0.025278 0.495305 -3 -247 65
-0.171216 -0.112941 -0.173973 -1 -255 -1
0.076552 -0.114004 -0.021322 -1 -255 -1
-0.075868 -0.112864 0.181621 -1 -255 1
-0.239570 -0.072047 0.199701 -253 3 -37
-0.014338 -0.010255 -0.449196 -11 229 -111
0.137095 0.051193 -0.243919 71 235 -67
0.138295 0.079107 -0.156532 47 243 -61
0.177374 -0.064797 0.452976 19 -219 129
-0.218010 -0.080123 -0.195499 -1 -1 -255
-0.130782 -0.053863 0.479270 -13 -227 115
-0.090070 0.096786 0.198887 159 193 43
0.012149 -0.054667 0.281480 -1 -255 -3
0.035669 -0.113809 -0.087842 -1 -255 -1
0.008543 0.074946 0.264579 9 255 1
0.172360 -0.072330 0.164043 -5 -1 255
0.225826 -0.017121 0.022970 255 17 -11
0.128109 -0.111749 -0.380233 1 -255 -19
-0.052452 -0.010161 -0.444730 -23 229 -109
0.025240 -0.054250 0.257228 -1 -255 -3
0.130570 0.061726 -0.213401 71 235 -67
-0.237994 0.021105 0.237326 -253 29 -27
0.078295 -0.081285 0.362869 -1 3 -255
-0.185260 0.047017 -0.187723 -205 153 -5
-0.084667 -0.091316 0.363402 -1 3 -255
-0.207150 -0.068258 -0.387659 -227 15 -113
-0.009780 -0.111338 -0.324197 -1 -255 -3
0.141935 -0.028032 -0.459936 73 197 -145
0.082215 -0.077142 0.442301 7 -221 129
-0.110281 -0.113311 -0.144943 -1 -255 -1
0.157018 -0.032877 0.481902 61 -1 247
0.024322 -0.042124 -0.029660 -1 255 -1
-0.031474 -0.077224 0.441196 -235 -89 45
0.150896 -0.113369 -0.093931 -1 -255 -1
0.215143 -0.059624 -0.369169 235 11 -99
-0.081749 -0.113310 0.112827 -1 -255 9
-0.020408 -0.112934 0.175290 -1 -255 1
-0.147716 -0.113775 -0.076569 -1 -255 -1
-0.099552 -0.026477 -0.467639 -25 217 -131
-0.127611 0.050371 -0.260703 11 255 15
0.234473 -0.039382 0.162473 253 9 -29
0.119697 0.024060 0.466183 39 -129 217
0.079590 0.079966 0.235327 -159 193 45
0.171505 -0.096495 0.222667 -39 3 -253
-0.029180 0.049683 -0.281788 1 255 17
0.116584 -0.114583 0.055099 -1 -255 -1
0.239095 0.010271 0.254887 255 -1 -1
0.176048 -0.041425 0.477660 61 -1 247
-0.049957 -0.059100 0.474708 -7 -221 129
0.240089 -0.086111 0.203450 237 -91 23
0.088167 0.060285 0.444347 -5 -255 -21
-0.044377 0.062845 0.227995 13 255 5
0.184714 -0.108306 -0.421722 1 -255 -19
-0.219388 0.011310 -0.146038 -223 125 -5
0.029419 -0.112205 -0.268691 -1 -255 -3
0.114381 -0.095687 -0.272364 255 -1 -1
-0.217758 -0.006994 -0.339897 -139 139 -163
-0.118701 0.100533 -0.090592 -43 243 -67
0.208915 0.053209 0.102653 1 255 -17
-0.095308 -0.113206 0.108476 -1 -255 9
0.018305 -0.111397 -0.369262 1 -255 7
-0.055256 0.105689 -0.104546 -13 243 -73
0.225580 -0.114274 0.003315 -1 -255 -1
0.207022 0.032455 -0.264855 157 201 9
-0.127343 -0.062982 -0.470109 -47 -69 -241
-0.222685 -0.113411 -0.103451 -1 -255 -1
0.036172 -0.112287 -0.243759 -1 -255 -3
0.039941 -0.112818 0.200116 -1 -255 1
0.225752 -0.027064 0.045101 253 -33 -7
0.216212 -0.093376 -0.171355 239 -85 17
-0.029420 -0.103283 0.380965 -1 -213 141
-0.096944 -0.110374 -0.385687 1 -255 -19
0.062623 -0.081949 0.436149 7 -221 129
-0.199236 -0.113351 -0.142023 -1 -255 -1
0.144606 -0.110109 -0.388845 1 -255 -19
0.200387 -0.095038 0.036565 235 -97 15
0.109172 -0.110001 -0.403202 1 -255 -19
-0.155189 0.083286 0.323045 -1 255 -3
0.174312 0.061907 0.078801 173 187 21
-0.229920 -0.024614 0.116695 -253 -7 -23
0.214111 -0.020671 0.451707 235 -23 97
-0.033920 -0.101125 -0.495701 1 255 9
0.239113 -0.094580 0.123242 253 23 9
-0.216198 -0.113106 0.365119 -3 -241 -85
0.139660 0.028177 0.461738 37 127 219
-0.213259 -0.113651 -0.059909 -1 -255 -1
-0.072597 -0.065278 0.464431 -7 -221 129
-0.231860 -0.053386 0.385931 7 -29 -253
-0.045392 0.037211 -0.330087 19 -241 81
0.210153 0.048388 0.068277 213 141 -13
-0.099686 -0.113359 -0.150549 -1 -255 -1
-0.112499 0.106099 -0.075660 -41 241 -69
0.140367 0.106711 0.110985 -11 249 -53
0.065542 -0.113209 -0.124877 -1 -255 -1
-0.161660 0.070949 0.244555 97 -235 -25
-0.225634 0.031471 0.381723 -181 173 43
0.122149 0.050853 -0.269116 75 217 -113
0.028662 0.064345 0.352075 1 -1 255
0.082516 -0.110995 -0.378391 1 -255 -19
-0.235175 -0.035890 0.402671 -243 7 75
-0.218994 0.024890 -0.023491 -235 99 -25
0.079837 -0.106688 -0.439498 1 -255 5
-0.173667 0.063034 0.006379 -177 183 -7
0.119374 -0.114283 -0.001409 -1 -255 -1
0.017221 0.062511 0.237845 11 255 1
-0.179334 0.082317 0.266146 -1 255 -3
-0.125524 0.038987 0.457481 -47 125 217
0.127241 -0.114436 0.016525 -1 -255 -1
-0.159432 -0.113342 -0.099149 -1 -255 -3
0.081000 -0.073295 0.450706 7 -221 129
0.221361 -0.012617 -0.085124 253 25 1
0.128577 -0.113104 0.169566 -1 -255 1
-0.110456 0.050999 -0.288986 -11 255 -11
0.123077 0.093857 0.151397 165 7 -193
0.154775 0.069805 0.387402 43 247 43
0.203427 -0.094242 -0.400806 229 -61 -91
-0.122870 0.086498 0.326778 -23 251 37
0.106219 -0.110700 -0.384150 1 -255 -19
-0.003907 0.062569 0.396474 -1 255 9
0.117396 -0.007672 -0.426721 21 229 -109
0.237061 -0.082265 0.185862 251 -17 -43
0.184244 0.083300 0.234259 59 247 23
0.218769 -0.037518 0.439660 225 -19 119
0.234231 -0.056736 0.400808 -229 45 -103
0.227085 -0.014146 0.056992 255 15 -7
-0.093451 0.062668 0.392449 -1 255 9
-0.226865 -0.002811 0.421583 -241 51 67
0.169343 -0.059005 0.431759 -23 219 -131
-0.115469 -0.113608 -0.088176 -1 -255 -3
-0.128927 0.062459 -0.213736 -71 235 -67
0.148505 -0.057171 -0.464701 95 -67 -227
0.204547 0.042065 -0.059053 -3 253 -23
-0.048075 0.067767 0.288733 1 253 25
0.167366 -0.113410 0.105727 -1 -255 9
0.151049 0.006292 -0.388446 49 231 -97
0.042905 -0.113586 -0.112915 -1 -255 -1
-0.046775 0.035567 -0.332544 -19 241 -81
0.123067 -0.114413 0.036696 -1 -255 -1
-0.102140 0.101270 0.247556 231 105 31
-0.026666 -0.108135 0.372676 1 -213 141
-0.239329 -0.062615 0.106774 -255 -11 5
-0.206400 0.013276 -0.293789 -1 -233 103
0.160373 -0.100827 -0.237555 255 -1 -5
-0.235354 0.032969 0.320891 -157 197 33
0.189328 0.044631 -0.031132 181 179 -21
-0.049190 -0.078584 0.015094 -5 255 11
0.150365 0.073896 -0.163633 57 233 -87
-0.132590 -0.108188 0.316011 119 -3 225
-0.003400 -0.110755 0.362482 -1 3 -255
0.115764 -0.113522 -0.095086 -1 -255 -1
-0.223437 -0.006032 -0.015133 -253 21 -19
-0.074072 0.051187 -0.300232 1 255 15
0.220963 -0.008733 -0.084156 -253 -25 -1
-0.087023 -0.113006 0.202949 -1 -255 1
-0.203134 0.005093 -0.311163 -1 -233 103
0.203880 -0.033173 0.452095 89 11 239
-0.102046 -0.112689 0.135057 -1 -255 1
0.218602 -0.083907 -0.157835 239 -85 17
-0.174514 -0.106787 0.375366 1 -213 141
0.163578 0.037938 -0.303565 9 247 -63
-0.022704 0.113783 -0.081894 -11 253 -29
0.134175 0.101933 0.108458 127 219 29
0.238231 -0.002140 0.210344 251 29 -27
-0.102948 0.022548 -0.361067 -13 239 -89
-0.009206 -0.112623 0.183210 -1 -255 1
0.049782 0.065832 0.179097 181 -181 -1
0.047022 0.079617 -0.190157 13 239 -87
-0.068744 0.063950 0.347472 -1 255 9
-0.094211 0.098427 0.208370 159 193 45
0.116193 -0.114377 0.010475 -1 -255 -1
-0.106059 0.085981 0.334023 229 109 29
0.074835 0.064651 0.300230 47 251 -5
0.067107 0.063514 0.375265 1 255 9
0.234981 -0.071271 0.168339 253 3 -37
-0.119135 0.101921 0.220130 -75 243 17
-0.210210 -0.112487 0.195040 -1 -255 1
-0.133816 -0.072514 -0.465223 -49 -69 -241
-0.224793 -0.043918 0.056835 -253 -13 -21
-0.167592 -0.064446 -0.260232 1 201 157
-0.050689 0.068871 -0.219105 -13 239 -87
0.125152 -0.101302 -0.469990 -1 255 5
0.005521 0.058222 0.459667 13 157 199
0.128089 -0.037285 -0.477547 35 221 -123
-0.199300 -0.057688 0.353218 -119 3 -225
0.198766 0.007268 -0.356430 197 117 -111
-0.157885 -0.102270 0.330288 -119 3 -225
-0.051713 0.061538 0.414185 -1 255 9
-0.041245 -0.113853 0.090684 -1 -255 9
-0.159717 0.079082 0.320976 53 -249 -15
0.232139 0.023666 0.380586 241 53 65
0.214517 -0.019695 -0.355625 189 123 -119
0.141025 0.073444 0.384385 55 245 45
-0.085859 -0.112966 0.230967 -1 -255 1
0.009647 -0.018246 0.482446 9 101 233
0.192818 0.080462 0.244747 253 -1 25
-0.140092 0.091723 0.160219 -127 219 29
0.041409 -0.024039 -0.474445 15 215 -137
0.048713 0.012005 -0.398068 19 239 -89
0.037272 -0.112802 -0.198121 -1 -255 -3
0.239289 -0.065895 0.118579 255 -11 5
-0.236966 0.007553 0.205685 -253 29 -27
-0.088096 -0.061651 0.363421 1 -3 255
-0.098535 -0.113487 -0.096378 -1 -255 -1
-0.165299 -0.106411 -0.197116 -1 -255 -1
0.029209 -0.008945 -0.445121 11 229 -111
0.147330 -0.079855 0.033643 -9 255 -7
-0.209679 0.000035 -0.343071 -171 135 -131
-0.069753 0.081942 0.170776 181 181 1
0.217947 0.009704 -0.323396 187 157 -75
0.042534 0.012561 -0.398568 7 239 -91
-0.097686 -0.028651 -0.472177 -31 201 -153
0.108265 -0.111851 -0.297389 -1 -255 -3
-0.209999 0.039338 -0.043890 -225 119 -15
0.166571 -0.059468 -0.196117 -1 35 253
-0.130500 0.100091 0.191711 -99 235 13
-0.187918 0.068369 0.311663 87 -239 -1
0.047090 -0.113367 0.104205 -1 -255 9
-0.036335 -0.099282 0.265363 119 -3 225
0.075599 -0.113658 0.099118 -1 -255 9
-0.084120 0.066658 0.297692 157 195 43
0.126822 -0.007188 0.468588 25 37 251
-0.213496 -0.092813 -0.125867 -239 -85 17
-0.086284 0.102789 0.133218 -191 -169 3
-0.020689 -0.027230 -0.118185 -1 241 85
0.026816 0.031815 -0.346846 7 241 -81
-0.214855 -0.044986 -0.198923 -1 -35 -253
-0.223006 -0.037749 -0.013386 -253 -31 -5
0.189642 -0.109532 -0.403060 1 -255 -19
-0.091654 -0.024107 -0.466002 -23 219 -127
-0.073738 -0.112855 -0.221604 -1 -255 -3
-0.144977 -0.114559 0.025346 -1 -255 -1
0.060512 -0.112691 0.149516 -1 -255 1
-0.225971 0.019176 0.081700 -255 15 -7
-0.130484 0.107045 0.027512 -171 189 -1
0.123239 -0.035035 0.488374 37 -1 253
-0.219571 -0.086452 0.124617 -1 -1 -255
-0.236616 -0.084210 0.181706 -251 -17 -43
-0.216607 0.038485 -0.167734 -147 -19 -207
0.090330 0.080447 0.209660 235 -97 -27
0.168324 -0.097577 -0.459120 -9 255 -13
-0.228196 0.056180 -0.152423 -17 241 -83
0.015398 -0.113420 -0.121904 -1 -255 -1
-0.235362 0.016262 0.376371 -241 53 65
-0.165561 0.075033 0.046258 -171 189 -3
-0.127880 -0.009704 0.087505 31 139 -211
0.091264 -0.071383 0.330076 -255 1 1
0.219859 -0.085682 -0.190795 243 -77 9
0.201359 0.055200 0.137564 7 255 -11
0.005384 -0.009167 -0.447974 11 229 -111
0.204211 0.044747 -0.026035 17 253 -27
-0.071090 -0.111247 -0.359970 1 -255 5
0.118913 -0.096020 0.230302 39 -3 253
0.091217 0.063284 0.388837 1 255 9
0.091113 -0.110501 0.369581 1 -213 141
-0.206840 -0.114278 0.025507 -1 -255 -1
-0.012930 0.075047 0.254852 -13 255 -5
0.234264 -0.006096 0.166233 251 31 -25
-0.105908 0.078085 -0.181773 -71 235 -67
-0.137885 -0.106410 -0.236505 -1 -255 -1
-0.116126 -0.101207 -0.481596 1 255 5
-0.006227 0.085930 -0.177648 -11 243 -75
0.178756 0.041327 -0.241755 43 251 -9
0.114380 -0.112080 -0.283251 255 -1 -1
0.210634 -0.082662 -0.044614 239 -85 23
-0.212380 -0.113847 -0.019424 -1 -255 -3
-0.163760 0.038954 -0.301296 -9 247 -63
0.081074 0.027035 -0.351490 17 241 -79
-0.214569 0.025309 -0.263526 -205 149 29
-0.066119 -0.054081 0.133185 -1 255 -1
0.223268 0.015667 0.419943 237 53 79
-0.088054 0.003913 -0.409199 -23 229 -109
-0.094087 0.062746 0.395148 1 -255 -9
-0.119548 0.079417 0.369452 -23 249 49
0.209320 0.036462 -0.163174 -13 -255 1
0.040196 0.061002 0.371396 -1 -251 39
0.190609 0.083611 0.211902 59 247 23
-0.236340 -0.055448 0.179090 -253 5 -35
-0.238635 0.012172 0.343375 -1 -251 -45
0.199479 0.053940 0.413869 193 151 71
-0.038494 -0.112645 0.127363 -1 -255 1
0.218354 -0.086454 -0.161138 -239 85 -17
0.023795 -0.112760 0.206791 -1 -255 1
-0.132596 0.099987 0.134221 -153 203 23
-0.151675 -0.038200 -0.470847 -97 -45 -231
-0.222129 0.020508 0.420200 -237 53 79
-0.003047 -0.054548 0.299337 -1 -255 -3
0.145559 -0.114429 -0.001125 -1 -255 -1
-0.112553 -0.031984 -0.474236 -35 221 -123
-0.068342 0.080369 0.180560 181 181 1
-0.164837 0.038510 -0.300955 -9 247 -63
0.089237 0.084900 0.263551 -159 193 45
0.008130 -0.058470 -0.491188 9 -15 -255
-0.057108 0.076172 -0.198066 -13 239 -87
-0.107163 -0.114652 0.040654 -1 -255 -1
0.234155 0.033590 0.323056 157 197 33
-0.069091 -0.092106 0.362534 1 -3 255
-0.022400 0.112382 -0.088485 -13 241 -81
0.183608 -0.016307 0.458514 -75 -25 -243
-0.206368 -0.099406 -0.061380 239 85 -17
0.024717 -0.113809 -0.086029 -1 -255 -1
0.161369 -0.054384 0.178513 -1 -255 -3
-0.067446 -0.113008 0.163857 -1 -255 1
-0.065591 -0.042393 -0.491643 -27 -137 -213
0.038041 0.067637 -0.224060 7 237 -95
-0.119082 0.105405 0.165959 -75 243 17
-0.148207 -0.113209 -0.148190 -1 -255 -1
-0.221618 -0.112552 0.174388 -1 -255 1
0.144774 -0.108428 -0.415464 1 -255 -19
-0.095024 0.050210 -0.282229 1 255 15
-0.144877 0.029421 0.459744 -49 125 217
0.229847 -0.113162 0.130545 -1 -255 1
0.202267 0.048153 0.424897 191 159 59
-0.210510 0.050731 -0.171997 -17 241 -83
-0.222346 -0.026750 -0.058788 -255 -23 3
0.063408 -0.114299 0.083048 -1 -255 9
-0.069807 0.083934 0.144926 191 169 -3
-0.179110 -0.113065 0.118230 -1 -255 9
0.181616 0.054043 0.432256 55 245 41
0.026851 0.087651 -0.169238 11 243 -75
0.187880 -0.007494 -0.360915 247 -1 -61
-0.219606 -0.063548 -0.091382 -251 -47 13
-0.005206 -0.086544 0.441178 1 -101 -233
-0.044231 -0.112653 0.201496 -1 -255 1
-0.226434 0.001101 0.056194 -255 15 -7
0.019748 0.051859 -0.241661 -1 -255 17
-0.076620 -0.066222 0.461313 -7 -221 129
-0.105552 -0.112396 0.295652 -1 -255 1
-0.156439 0.076255 0.031607 171 -189 3
0.222838 -0.025674 -0.147163 -253 -23 -1
0.212100 -0.071143 0.022174 231 -107 9
0.073447 -0.082020 0.435021 7 -221 129
-0.024048 -0.111940 -0.358748 1 -255 5
0.058336 -0.110711 -0.390342 1 -255 -19
0.178529 0.041801 -0.231762 77 233 -71
-0.087749 0.076061 0.268867 157 195 43
0.151534 0.086186 0.285984 59 247 23
-0.104420 -0.021953 -0.460609 -23 219 -127
-0.219036 -0.065360 0.427906 -213 -61 125
0.197032 0.011341 0.450554 -73 -53 -239
0.032979 0.030309 -0.352452 7 241 -81
-0.048527 -0.111968 -0.362938 1 -255 5
-0.076257 0.064221 0.348975 -1 255 9
0.033765 0.013905 -0.396757 7 239 -91
0.098530 -0.114012 -0.039804 -1 -255 -3
-0.145148 -0.113922 0.095611 -1 -255 9
-0.019333 -0.113901 0.092801 -1 -255 9
-0.179762 -0.114272 0.022352 -1 -255 -1
0.223761 -0.008056 -0.010532 253 21 -13
-0.041407 0.063831 0.141811 1 255 1
0.221459 -0.040099 -0.042472 253 -23 -7
0.141849 -0.112452 0.226239 39 -3 253
0.145458 -0.071258 0.446579 23 -219 127
-0.215976 0.021314 0.439500 -235 49 85
0.127690 -0.080838 0.229391 -39 3 -253
-0.213095 0.052153 0.172745 -207 147 -11
0.203462 0.062950 0.258486 137 215 -5
0.203053 -0.096514 -0.401599 229 -61 -91
-0.036140 -0.108050 -0.423182 1 -255 -19
0.104625 0.045377 -0.290688 75 217 -113
-0.219020 -0.071393 0.363536 1 -3 255
0.159945 -0.076540 -0.029342 9 255 11
-0.123567 0.097715 0.249937 1 253 39
-0.137418 -0.065242 0.047346 233 17 -101
0.051068 -0.107152 -0.463330 1 -255 5
-0.074390 -0.112669 0.181991 -1 -255 1
0.170448 0.025520 -0.335797 33 233 -99
0.066601 0.002841 -0.414483 23 229 -109
0.217565 -0.047795 0.439118 215 -61 121
0.037342 -0.114515 0.028075 -1 -255 -1
0.215124 -0.113812 -0.075654 -1 -255 -1
-0.079319 0.010903 -0.396010 -23 229 -109
0.236754 0.016960 0.317496 -1 -251 -45
0.153197 -0.106086 -0.164271 1 255 1
-0.089789 -0.112821 0.137966 -1 -255 1
0.226562 0.021670 0.100821 255 15 -7
0.059246 0.016508 0.096294 159 169 -105
-0.227958 -0.041313 0.097146 -255 -7 -21
-0.076107 0.064386 0.296550 -47 251 -5
-0.142792 -0.107330 -0.466281 1 -255 5
0.089120 0.076310 0.299123 -157 195 43
0.166623 -0.114092 -0.020228 -1 -255 -3
0.169208 0.091044 0.187053 141 -1 -213
-0.145928 -0.088661 -0.235944 -255 -1 -5
-0.174691 -0.112591 0.142010 -1 -255 1
-0.218872 -0.055621 -0.357334 255 -1 -1
-0.046945 -0.112843 -0.198408 -1 -255 -3
-0.183055 0.048658 -0.065252 -195 165 -1
0.151123 -0.059600 -0.462634 95 -67 -227
0.014340 -0.112241 -0.369813 1 -255 7
0.006970 0.062480 0.395098 1 255 9
-0.238885 -0.097091 0.139670 -249 -57 13
0.016159 0.074697 0.324308 9 255 -1
-0.085887 -0.112590 0.173852 -1 -255 1
-0.198442 -0.112916 0.117974 -1 -255 9
0.114387 -0.106624 -0.349447 255 -1 -1
-0.062439 0.062563 0.368504 -1 -255 9
-0.112538 -0.111205 -0.338969 -1 -255 -3
-0.112781 0.012216 0.464407 -33 79 241
-0.083553 -0.113029 0.153804 -1 -255 1
0.147713 -0.012951 -0.429757 39 229 -103
0.155376 0.039744 0.143263 -3 1 255
-0.218366 0.015119 -0.105904 -235 99 -3
-0.087299 -0.079385 0.014945 -5 255 11
0.228670 -0.041614 0.104908 255 -7 -21
0.124587 -0.106754 -0.435981 1 -255 -19
-0.169176 0.087658 0.186804 -141 -1 -213
0.190622 -0.114531 -0.001483 -1 -255 -1
-0.217588 -0.106146 0.194402 -49 1 251
-0.155741 0.083348 -0.120367 -147 207 -23
0.181229 -0.113799 -0.066507 -1 -255 -1
-0.050724 -0.054800 0.331810 -1 -255 -3
-0.011712 0.020527 -0.379652 -7 239 -91
-0.163649 -0.112770 0.174596 -1 -255 1
-0.127854 -0.094784 -0.338464 -255 -1 -1
0.228540 -0.001857 0.244298 -1 -195 165
-0.141580 -0.113334 0.112362 -1 -255 9
-0.201498 0.025867 -0.318913 -9 241 -83
0.210771 -0.107890 0.215861 39 -3 253
0.222043 -0.017455 -0.154248 253 23 1
-0.223060 0.055613 -0.155097 -17 241 -83
-0.193435 0.052330 0.086436 3 255 -19
-0.221035 -0.114228 0.021350 -1 -255 -1
-0.199136 -0.113404 -0.092934 -1 -255 -1
0.201390 -0.013625 -0.334666 -1 -171 189
0.234463 -0.006376 0.168979 251 31 -25
0.091259 -0.060363 0.242371 -255 1 1
-0.127221 -0.112345 -0.267550 -1 -255 -3
-0.213144 0.050373 0.360131 -197 159 35
-0.237397 -0.048875 0.183257 -253 3 -29
0.207370 0.052892 0.382876 197 159 35
0.036620 -0.113012 -0.222037 -1 -255 -3
-0.161929 -0.084729 0.332331 119 -3 225
0.103890 -0.112812 0.130001 -1 -255 1
0.018630 -0.033324 0.044998 -1 255 -1
-0.220451 0.004739 -0.149598 -255 21 3
0.164662 0.077910 0.319319 -107 -231 -15
0.056865 0.061588 0.430124 1 255 13
-0.004414 -0.113313 -0.176122 -1 -255 -1
0.019824 -0.080239 0.460846 97 -211 105
-0.223674 0.010440 0.424498 -237 53 79
0.180521 -0.106368 0.157444 -1 -255 -1
-0.205233 -0.113775 -0.042164 -1 -255 -3
-0.117581 -0.107452 -0.482276 -1 -255 -9
0.079469 0.101064 -0.113463 47 243 -61
0.230286 0.010532 0.144604 -251 -31 25
-0.236136 -0.054781 0.117691 -227 117 5
-0.067062 0.050736 -0.295385 1 255 15
-0.000838 0.052878 0.463796 -13 157 199
-0.031540 -0.113875 -0.078319 -1 -255 -3
-0.011829 -0.113882 0.095701 -1 -255 9
-0.096302 -0.107481 -0.491887 -1 -255 -9
-0.210813 -0.096549 -0.110991 -239 -85 17
0.145991 0.094853 0.208053 59 247 23
-0.227669 -0.108926 -0.155414 -255 -1 -3
0.206120 0.056902 0.372191 185 171 35
-0.147012 -0.100047 0.386290 1 -213 141
-0.124951 0.037369 0.458923 -49 105 227
-0.148324 0.010574 0.461283 -39 93 233
-0.055841 -0.112841 0.155308 -1 -255 1
0.123132 0.059351 -0.231502 71 235 -67
-0.222906 -0.028739 -0.118693 -255 -5 9
0.066556 -0.111942 -0.298637 -1 -255 -3
0.034040 0.097632 -0.135160 11 243 -75
0.113719 0.104871 0.199731 75 243 17
0.103866 0.050064 -0.278547 -3 255 17
-0.197164 -0.039262 -0.400718 -209 113 -93
0.197035 -0.102042 0.156938 1 -255 5
-0.205039 -0.095499 -0.396681 -229 -61 -91
0.139221 0.046377 -0.271379 43 251 -9
-0.024462 -0.077764 0.259761 119 -3 225
0.151077 -0.092087 0.406379 -49 -1 -251
0.063806 -0.114580 0.029714 -1 -255 -1
0.094400 -0.112385 -0.279869 -1 -255 -3
-0.123654 -0.106138 -0.127644 1 255 1
-0.215012 -0.094368 0.395501 -25 -215 135
0.032097 0.062457 0.242676 1 255 9
-0.203718 0.048664 0.028276 -13 255 -15
-0.146932 -0.092484 0.409497 -19 -219 129
-0.110701 0.084429 0.346849 -23 251 39
0.209349 0.051961 0.373891 197 159 35
0.084134 -0.111964 -0.355916 1 -255 5
-0.122997 0.053210 -0.251581 -13 239 -87
0.041327 -0.054209 0.232083 -1 -255 -3
-0.127085 -0.090170 -0.299059 -255 -1 -1
-0.204368 -0.085147 0.054101 -231 -107 13
-0.046037 0.062701 0.381534 -1 255 9
0.236276 0.028325 0.257914 -213 -135 33
0.051991 0.080415 -0.188234 13 239 -87
0.143213 -0.002000 -0.408423 27 231 -105
-0.014900 0.056402 -0.252788 -7 237 -95
-0.230308 -0.109968 0.040728 -255 -5 -7
-0.013997 0.049340 -0.273550 -1 255 -17
-0.118638 -0.112943 0.270409 -255 -1 -1
-0.177043 -0.071320 0.440734 -19 -219 129
0.028297 -0.113212 -0.140455 -1 -255 -1
-0.039954 -0.111608 -0.330312 -1 -255 -3
-0.119813 0.071998 0.408238 -37 249 43
0.209623 -0.008077 -0.219303 -1 -147 -207
0.223493 -0.113369 0.099817 -1 -255 9
0.114190 0.090376 0.306576 27 251 39
-0.115829 0.096845 0.135683 -169 125 -145
0.078973 0.035952 0.465436 15 111 229
0.211713 0.014358 0.448196 83 61 233
-0.083529 -0.114565 0.017716 -1 -255 -1
-0.209358 0.045993 0.000974 -225 119 -15
0.200663 -0.106085 -0.016316 245 -63 25
0.075656 -0.076604 -0.028136 7 255 11
-0.050712 0.016160 0.465451 -9 101 235
0.020565 -0.021162 -0.471554 11 231 -107
-0.173963 0.061418 -0.028719 -179 181 -5
0.100406 -0.106615 -0.442626 1 -255 5
-0.204040 -0.043951 -0.388503 -209 113 -93
0.105067 -0.043044 0.143354 -1 9 255
-0.151711 -0.107540 -0.425389 1 -255 -19
0.147318 -0.075746 -0.043408 -5 255 15
-0.171011 -0.072969 0.439450 -19 -219 129
-0.059778 0.084698 -0.173680 -11 243 -75
0.112262 0.096126 0.268565 27 251 39
0.089980 0.026053 0.470018 17 105 231
-0.233466 -0.097068 0.171948 -255 5 7
0.164700 -0.113475 0.108617 -1 -255 9
0.206112 -0.114493 0.051185 -1 -255 -1
0.025901 -0.112691 -0.233607 -1 -255 -3
-0.216599 0.023861 -0.046899 235 -99 25
0.116468 -0.043056 0.488905 35 -1 253
-0.125451 -0.111541 -0.360436 1 -255 5
0.220467 -0.076464 -0.143185 251 -37 17
-0.186377 -0.112648 0.150141 -1 -255 1
-0.125297 0.020453 -0.107199 -255 -3 -1
0.205502 -0.090800 0.394770 -55 -1 -249
0.232324 -0.014714 0.370933 -1 -175 -185
0.051725 -0.113912 -0.028866 -1 -255 -1
0.049723 -0.112821 -0.213993 -1 -255 -3
-0.058940 -0.111297 0.368312 1 -213 141
0.222745 0.022419 0.013504 253 21 -13
0.181675 0.049997 -0.076134 195 165 -1
0.090580 0.107055 0.163502 -181 179 9
0.112910 -0.110687 -0.382715 1 -255 -19
-0.074796 -0.111252 -0.380749 1 -255 -19
-0.220463 0.006219 -0.143211 -255 21 3
0.162623 -0.054639 0.195862 -1 -255 -3
-0.052719 -0.114481 0.072598 -1 -255 9
-0.052848 -0.049889 0.493186 -7 -227 115
-0.236044 0.033412 0.273117 -213 135 -33
0.114242 -0.076054 -0.318410 255 -1 -1
0.203108 -0.086909 0.058688 231 -107 13
-0.231090 0.014662 0.162848 -251 31 -25
0.117682 0.070271 0.421308 37 249 43
0.023529 0.062840 0.344327 -3 -255 1
0.197022 -0.033650 -0.397134 219 69 -113
-0.194636 -0.113028 -0.163295 -1 -255 -1
0.221749 0.017770 -0.253515 255 5 -13
0.114648 -0.067723 -0.282401 255 -1 -1
0.036991 -0.112499 0.214606 -1 -255 1
-0.233613 -0.066913 0.388828 -247 -67 -1
0.101177 0.085790 0.239260 159 -193 -45
0.169079 0.066936 0.010712 179 181 -3
0.134634 0.008592 0.463581 23 93 235
-0.062899 0.073048 0.206822 159 193 45
-0.223091 -0.026442 -0.106032 -253 25 1
-0.022078 -0.112619 0.201127 -1 -255 1
-0.237475 -0.059853 0.185999 -253 3 -37
-0.221492 -0.013977 -0.058097 -253 25 1
-0.038706 0.051165 -0.300027 1 255 17
0.123553 0.056829 -0.238819 71 235 -67
-0.183615 0.060457 0.142946 -145 209 -1
0.008962 0.064350 -0.234466 7 237 -95
-0.118929 -0.109054 -0.403411 1 -255 -19
0.097662 0.080119 0.319778 -229 109 29
0.034391 0.049059 -0.218860 13 -133 -217
0.219339 -0.061292 -0.077261 251 -47 13
-0.079541 0.100425 -0.116298 -47 243 -61
0.077368 -0.113213 -0.200896 -1 -255 -3
-0.131108 0.075441 0.383359 -23 249 49
-0.056369 -0.088851 0.423455 -7 -221 129
0.003432 -0.112629 -0.204406 -1 -255 -3
0.214657 0.047895 0.149335 207 147 -11
-0.205903 -0.113294 -0.148770 -1 -255 -1
-0.210308 0.026194 -0.175760 217 -135 11
0.178236 -0.104544 0.221367 -39 3 -253
-0.166416 -0.114167 0.080310 -1 -255 9
0.235965 -0.061613 0.212780 -1 -3 255
-0.235438 -0.013609 0.229930 -1 -109 231
0.184572 0.014389 -0.290915 -1 -233 103
0.222098 -0.067917 -0.152249 253 -29 11
-0.021933 -0.101249 -0.492300 1 255 9
-0.047036 0.054941 0.459142 -13 155 201
-0.125348 -0.112395 -0.226663 -1 -255 -3
0.114269 -0.108960 -0.279038 255 -1 -1
-0.107363 -0.057135 0.475708 -15 -219 129
-0.173199 -0.032628 0.477882 19 227 -115
-0.215627 -0.113433 -0.069797 -1 -255 -1
0.179631 -0.113419 -0.097561 -1 -255 -1
0.235027 0.034979 0.311707 157 197 33
-0.142186 0.087821 0.287258 -59 247 23
-0.222718 -0.024138 -0.134288 -255 23 1
-0.193518 -0.100420 0.363780 -1 3 -255
-0.051510 0.032935 -0.086718 -217 93 97
0.165336 -0.051271 0.024567 -247 1 -63
-0.136049 0.014704 -0.371513 -31 233 -99
0.002334 0.062249 0.404856 1 255 9
-0.108135 0.103493 0.219821 27 -251 -29
0.022673 -0.033339 0.018643 -1 255 -1
-0.214897 0.041860 0.071373 -211 143 -11
0.083121 0.098688 0.107610 219 69 -113
-0.090051 -0.111501 -0.364213 1 -255 5
0.201506 0.009710 -0.343794 171 135 -131
0.008882 -0.018290 0.482604 9 101 233
0.188827 0.040033 -0.107587 -209 -147 5
-0.105722 -0.107144 -0.452260 1 -255 5
0.114384 -0.068347 -0.256044 255 -1 -1
-0.218710 0.012303 -0.153710 -223 125 -5
0.059932 0.075452 0.176055 -181 181 1
-0.001732 0.020971 -0.381626 -7 239 -91
0.084796 -0.114931 0.061609 -1 -255 -1
0.221495 -0.003975 0.439941 237 -9 95
-0.015053 -0.106952 -0.441137 1 -255 5
0.079919 0.063621 0.362321 1 255 9
0.142862 -0.107026 -0.471368 13 -255 -9
0.229247 -0.108974 -0.005170 255 -5 -9
-0.237812 0.002513 0.378475 -241 53 65
0.220667 -0.082389 -0.181029 239 -87 -5
-0.126875 0.103207 0.166302 -59 247 23
-0.231612 -0.015740 0.131733 -253 -7 -23
0.044233 -0.113944 0.088215 -1 -255 9
0.087214 0.102974 0.167458 -181 179 9
-0.048026 0.050973 0.463101 -13 155 201
-0.160071 0.068679 -0.171571 -57 233 -87
-0.220916 -0.003347 -0.114462 -255 23 3
0.155154 0.064342 -0.186729 57 233 -87
0.173942 0.062716 0.019584 177 183 -7
-0.035015 0.007930 0.469436 -7 109 231
-0.134858 -0.113214 -0.150732 -1 -255 -1
-0.239815 -0.007445 0.219611 -255 -1 -1
-0.186138 -0.113041 -0.192025 -1 -255 -1
0.114489 -0.099238 -0.273051 255 -1 -1
0.152114 0.066496 0.409273 43 247 43
0.155392 0.085320 0.286620 59 247 23
0.214162 0.020970 -0.142173 221 125 -5
0.007240 -0.113590 -0.106745 -1 -255 -1
0.105536 -0.112201 -0.261174 -1 -255 -3
-0.178105 0.075497 0.264344 107 -231 -15
-0.175228 0.060594 0.091946 -167 193 15
0.179107 0.018857 -0.348434 33 233 -99
-0.124392 -0.113621 -0.081608 -1 -255 -1
0.044080 0.063448 0.147939 1 255 1
0.054827 0.067573 0.291018 1 253 25
-0.183310 0.049265 -0.182933 -205 153 -5
-0.059519 0.041447 -0.313298 -19 241 -81
-0.163823 0.082665 0.284002 -59 247 23
-0.221971 0.023958 0.011204 -225 119 -17
-0.232779 -0.037827 0.147975 -253 9 -29
-0.119702 -0.085614 0.424508 -15 -219 129
0.101866 -0.113256 0.112178 -1 -255 9
-0.221025 0.000854 -0.166695 -255 21 3
0.039496 -0.111626 -0.334393 -1 -255 -3
-0.008275 -0.114674 0.032654 -1 -255 -1
0.143717 0.016350 -0.365268 31 233 -99
-0.079899 0.064280 0.348453 -1 255 9
0.084972 0.046341 -0.301935 75 217 -113
0.057016 -0.056409 0.360917 -1 -255 -3
0.143562 0.049450 0.447155 63 125 213
0.196663 -0.114449 0.041730 -1 -255 -1
0.024837 0.084569 -0.179917 11 243 -75
0.226767 0.036713 0.222170 207 147 -11
0.189038 0.083556 0.247870 -1 255 -3
-0.116304 -0.012454 0.142697 -1 9 255
0.143172 -0.114524 0.009307 -1 -255 -1
-0.127521 -0.114170 0.082894 -1 -255 9
0.176587 -0.106660 -0.442089 1 -255 5
0.193461 -0.097297 0.389324 -1 -213 141
-0.083373 0.084128 0.131885 235 95 27
-0.197988 -0.080648 -0.407745 -227 11 -115
0.190191 0.064310 0.358594 83 237 39
0.162712 0.003394 -0.232183 -1 -205 -153
0.072320 -0.107398 -0.484588 1 -255 -9
0.168325 0.022830 0.091869 -199 143 -67
0.158132 -0.114282 0.084776 -1 -255 9
-0.207883 -0.100746 -0.354419 1 1 255
-0.163721 -0.106715 -0.444707 1 -255 5
0.049930 -0.054868 0.269137 -1 -255 -3
-0.045145 0.061097 0.427977 -1 255 13
-0.030142 -0.113524 -0.100506 -1 -255 -1
-0.155882 -0.114357 0.077154 -1 -255 9
0.022544 0.046568 0.466023 15 75 243
0.135818 0.096997 0.213706 59 247 23
-0.090592 -0.045680 -0.320433 -1 255 3
0.059236 -0.113391 -0.153755 -1 -255 -1
-0.201947 -0.091420 0.039849 -231 -107 9
-0.240307 -0.080322 0.205913 255 -1 -11
0.206073 0.039982 -0.087925 47 249 -21
-0.122944 -0.113418 -0.140140 -1 -255 -1
-0.196522 -0.113524 -0.058854 -1 -255 -1
-0.063926 -0.077681 0.442821 -7 -221 129
0.095035 0.017122 -0.375729 19 239 -89
-0.144489 0.064948 -0.191909 -57 233 -87
-0.118681 -0.103720 0.218641 -255 -1 -1
0.236257 -0.014733 0.177395 253 -7 -23
-0.219541 -0.000801 -0.333258 -255 -3 -3
-0.160967 0.078920 0.129134 -159 199 15
0.022730 -0.114917 0.068579 -1 -255 -1
0.209277 0.044326 -0.009197 225 119 -15
-0.064927 -0.113437 -0.121967 -1 -255 -1
-0.134731 -0.109305 -0.413115 1 -255 -19
-0.152281 0.002654 0.462856 -49 79 237
-0.063092 0.066732 0.301066 1 253 25
-0.219012 -0.063571 -0.079721 -251 -47 13
-0.172056 0.013567 -0.364105 -37 227 -109
-0.063584 0.033084 -0.338438 17 -241 79
-0.233496 -0.067743 0.389392 -247 -67 -1
-0.061953 0.053165 -0.257472 -7 237 -95
-0.079853 -0.026816 -0.471882 -23 219 -127
-0.094786 0.097526 0.211595 159 193 45
-0.105567 0.049768 -0.264209 -7 237 -95
-0.193310 -0.033967 -0.405094 -219 69 -113
0.209663 0.045142 0.000888 225 119 -15
-0.199928 0.041365 -0.060558 21 253 -29
0.204115 -0.097349 0.217477 -39 3 -253
-0.052784 0.063621 0.373004 -1 255 9
-0.147129 -0.097662 0.323967 119 -3 225
0.184734 -0.036430 0.474617 67 -1 247
0.045781 -0.111777 -0.293510 -1 -255 -3
0.037172 -0.112999 0.150572 -1 -255 1
-0.021043 0.062456 0.403974 -1 255 9
-0.233437 -0.080391 0.163802 -251 -17 -43
0.112738 0.001291 0.096117 -5 141 -213
0.172027 0.009766 -0.372346 37 227 -109
-0.188335 0.006734 0.453981 -73 53 239
-0.233671 0.033175 0.257200 -213 135 -33
0.031072 -0.111789 -0.318442 -1 -255 -3
0.228798 -0.107233 -0.011806 255 -5 -9
-0.129030 -0.035816 -0.474364 35 -221 123
-0.011129 0.063227 0.379285 -1 255 9
0.220628 0.043993 0.190838 207 147 -11
0.223063 -0.001222 0.434580 235 49 85
0.104616 -0.106283 -0.099382 1 255 1
-0.168388 0.070516 0.058199 173 -187 -21
-0.173868 0.040034 -0.291059 -43 251 -9
-0.042184 0.026284 -0.362504 -19 239 -89
-0.048115 -0.111698 0.367332 1 -213 141
0.224365 -0.024932 -0.008428 253 -31 -7
-0.067249 -0.110201 -0.391855 1 -255 -19
-0.075708 -0.107243 -0.457000 1 -255 5
-0.162917 -0.061329 0.333618 -119 3 -225
-0.038030 -0.107486 -0.458269 1 -255 5
0.155953 0.059598 0.434363 -51 -239 -73
0.200363 -0.045510 -0.398838 227 29 -113
0.027502 0.074429 0.265821 15 255 -5
0.132229 -0.068562 -0.467545 49 -65 -241
0.049527 -0.112466 -0.228433 -1 -255 -3
0.005178 -0.072743 0.467684 -97 -211 105
0.233907 -0.026261 0.157239 253 -7 -23
0.227673 0.026649 0.138727 253 25 -13
-0.175578 -0.113971 0.092895 -1 -255 9
-0.035861 -0.023398 -0.473553 -15 215 -137
0.219350 0.049948 0.317189 199 159 3
-0.090388 0.108344 0.121000 -3 249 -55
0.098930 -0.088666 0.193667 119 -3 225
0.028512 0.027099 -0.361966 7 241 -81
-0.116338 -0.045919 0.488967 -33 -11 253
0.221509 0.031459 0.065648 211 143 -11
0.142766 -0.114795 0.044918 -1 -255 -1
0.235194 0.018726 0.306370 -1 -251 -45
0.087616 0.043550 -0.305524 75 217 -113
-0.236296 -0.010214 0.393934 -241 51 67
0.120008 0.029003 -0.341231 -11 -239 89
-0.127870 -0.050781 0.484899 -13 -227 115
0.014515 0.008165 -0.410255 9 229 -111
-0.111173 0.105118 0.200755 -27 251 29
0.160647 -0.112804 -0.178889 -1 -255 -1
0.013758 -0.044553 -0.493717 11 -161 -197
-0.143670 0.094752 0.042165 -171 189 -1
-0.012055 0.053216 0.076535 85 231 -65
0.193139 0.065925 0.321810 87 239 1
0.155294 0.082795 0.138500 159 199 15
0.053510 -0.026954 -0.477709 21 215 -137
0.038873 -0.114066 -0.013729 -1 -255 -3
0.143380 -0.032979 -0.466686 47 205 -143
-0.162733 0.077517 0.041570 -171 189 -3
-0.165201 -0.097473 0.388798 -1 -213 141
0.033375 -0.099399 0.386417 -1 -213 141
-0.069770 -0.114707 0.071028 -1 -255 9
0.209691 -0.100486 -0.114278 -239 85 -17
-0.220793 -0.113368 -0.120930 -1 -255 -1
-0.222243 -0.018354 -0.138690 -255 23 1
0.134652 0.099027 0.128036 153 203 23
-0.150932 -0.096598 -0.217808 -1 -201 -157
-0.110835 -0.114371 0.027813 -1 -255 -1
-0.041732 0.063831 0.375538 -1 255 9
0.164204 -0.078065 0.009678 -7 255 15
-0.158704 0.077982 0.191262 141 -211 -5
-0.217288 0.024701 -0.294030 -187 157 -75
0.065554 0.055389 0.458314 13 155 201
-0.154232 -0.113077 -0.150878 -1 -255 -1
0.085342 0.109970 -0.077595 35 251 -31
0.120362 -0.106981 -0.436686 1 -255 -19
0.096494 0.106119 0.217153 239 -83 -29
-0.037676 -0.112605 -0.208594 -1 -255 -3
-0.071133 0.063571 0.264940 1 -255 -1
0.004374 -0.055282 0.318261 1 255 3
0.173905 -0.007317 -0.407471 49 225 -111
0.008126 -0.077821 -0.490156 9 -15 -255
0.171770 -0.114206 -0.023743 -1 -255 -3
-0.054989 0.073841 -0.204812 -13 239 -87
-0.189706 -0.113061 0.165914 -1 -255 1
0.069539 0.084932 0.188750 -159 193 43
0.177850 -0.051802 -0.262365 -5 -37 -253
-0.125576 -0.113599 -0.108571 -1 -255 -1
0.077337 0.049727 -0.301820 75 217 -113
-0.013151 -0.107872 -0.423100 1 -255 -19
-0.206791 0.017320 0.445682 -55 51 243
0.222530 -0.032095 -0.110858 -255 5 -9
0.122888 -0.098671 0.388316 1 213 -141
0.066218 -0.114464 0.025849 -1 -255 -1
-0.215887 0.022303 -0.085137 -235 99 -3
0.171208 0.063512 -0.052081 179 181 -5
-0.100132 0.085213 0.290702 231 105 27
-0.040989 -0.112489 0.256759 -1 -255 1
0.228018 -0.107815 -0.039610 255 -5 -9
-0.073835 0.064781 0.268233 157 195 43
-0.167023 0.003406 0.459644 -49 79 237
-0.239215 -0.027697 0.213070 -255 -1 -1
0.025633 -0.093960 -0.488313 9 -15 -255
-0.120342 0.071687 0.414464 -37 249 43
-0.201943 -0.096798 0.354014 -119 3 -225
0.206237 -0.012401 -0.333698 -1 -171 189
-0.236776 0.053179 -0.152561 -151 43 -201
0.080939 -0.113014 -0.214958 -1 -255 -3
0.090360 -0.099637 0.275213 255 -1 -1
0.129251 -0.106280 -0.141834 1 255 1
0.018375 -0.113503 -0.127101 -1 -255 -1
-0.174316 0.083515 0.317496 -1 255 -3
-0.011885 -0.055530 0.348921 -1 -255 -3
0.053147 -0.113062 0.166787 -1 -255 1
-0.207415 -0.058530 0.357644 -119 3 -225
0.197107 0.066401 0.215822 137 215 -5
0.067719 0.075583 0.212368 -41 -81 239
0.054364 -0.112610 0.168231 -1 -255 1
-0.103872 0.068177 0.359408 -229 -109 -23
0.199092 0.064205 0.295612 -87 -239 -1
0.012999 0.105095 -0.113769 11 243 -75
-0.105750 -0.112612 0.278388 -1 -255 1
0.205644 -0.090792 -0.021026 235 -97 15
0.202179 0.062922 0.339411 83 237 39
-0.047420 0.062573 0.401280 -1 255 9
-0.127104 -0.048948 -0.241834 -255 -1 -1
0.079058 0.073955 0.261393 -159 195 43
-0.224048 -0.054971 -0.173570 -255 5 7
0.026951 -0.110809 -0.386411 1 -255 -19
-0.150269 -0.067602 0.450611 -23 -219 127
0.159203 -0.113359 -0.148731 -1 -255 -1
0.182360 0.083522 0.288819 -1 255 -3
-0.107192 0.084559 0.345923 229 109 29
0.120122 -0.114316 0.025852 -1 -255 -1
0.141814 0.068788 0.410501 43 247 43
-0.052280 -0.113467 -0.090505 -1 -255 -1
-0.036108 0.074310 0.311859 -9 255 -1
0.020130 -0.111447 -0.336613 -1 -255 -3
0.207987 -0.070698 0.099611 233 -103 13
-0.212380 -0.034034 -0.365886 -231 59 -93
-0.227803 -0.052657 0.417972 -229 -45 103
0.049484 -0.107223 -0.462920 1 -255 5
-0.096489 0.081973 0.286939 159 195 43
0.224211 0.028804 0.089009 211 143 -11
0.020819 -0.112196 -0.248142 -1 -255 -3
0.087216 0.107744 0.117656 15 249 -55
0.168029 0.083276 0.273753 -1 255 -3
-0.222978 0.037270 0.371805 181 -173 -43
-0.208488 0.029233 -0.235481 -205 149 29
-0.208704 -0.114180 0.007834 -1 -255 -1
-0.073877 0.061926 0.284048 -157 -195 -43
0.233169 -0.029138 0.407786 243 7 75
-0.232341 -0.109344 0.159461 -121 -223 21
0.005048 -0.094384 0.243674 119 -3 225
-0.001203 -0.112290 -0.281925 -1 -255 -3
0.053307 0.067604 0.269236 47 251 -5
-0.225032 -0.015718 -0.000857 -255 17 -11
-0.064419 0.112359 -0.080465 -35 251 -31
-0.133890 -0.009003 -0.426221 -39 229 -103
-0.102532 -0.114599 0.064640 -1 -255 -1
-0.046656 -0.107176 -0.474406 1 -255 1
0.221748 -0.056353 -0.110998 255 -7 9
0.064120 0.059639 -0.241324 7 237 -95
-0.088730 0.008205 -0.400839 -23 229 -109
0.010507 -0.055224 -0.490929 13 -9 -255
-0.188837 0.049247 0.434873 -55 179 173
-0.200798 0.033978 -0.249407 -91 237 5
-0.236518 -0.025845 0.184632 -253 9 -29
-0.085344 -0.112868 0.192439 -1 -255 1
0.203576 -0.026515 0.451980 89 11 239
-0.134128 -0.101259 -0.250861 1 -61 -247
0.238296 -0.079238 0.138101 255 5 11
-0.024090 0.024214 -0.369560 -7 239 -91
0.005822 -0.080608 0.452578 -97 -211 105
-0.073642 -0.112748 0.135205 -1 -255 1
0.198673 0.034360 -0.193491 93 237 -9
-0.010456 -0.031095 -0.107411 -1 241 85
0.080510 0.053156 -0.256215 7 237 -95
-0.111043 -0.113902 0.088896 -1 -255 9
0.038520 0.108534 -0.098489 13 243 -73
0.174668 -0.113518 -0.153454 -1 -255 -1
0.214235 0.039455 0.021406 223 121 -15
0.089805 0.092674 0.231510 -159 193 45
-0.167967 0.072738 0.133859 -159 199 15
0.111267 -0.070650 0.055584 -35 171 -185
0.168360 0.068160 0.017754 177 183 -7
0.105388 -0.112130 -0.324663 -1 -255 -3
0.141944 0.017255 0.106231 -5 159 -199
0.017856 -0.112260 -0.270256 -1 -255 -3
0.166752 -0.086234 -0.231501 -1 -201 -157
-0.016389 0.061446 0.431139 1 -255 -5
0.112006 -0.053579 0.481141 13 -227 115
0.236364 0.006908 0.380859 241 53 65
-0.174448 -0.109144 -0.402401 1 -255 -19
0.100112 -0.109422 0.371214 -1 -219 131
0.168303 -0.107342 0.375443 -1 -213 141
0.208682 -0.076253 0.043050 231 -105 15
0.217075 0.017033 0.437867 235 49 85
0.050884 -0.111576 -0.370440 1 -255 7
-0.187759 0.038829 -0.243804 -91 237 5
-0.101802 -0.112668 0.214581 -1 -255 1
-0.125121 0.067178 -0.200097 -71 235 -67
-0.033361 -0.003856 -0.435566 -9 229 -111
-0.233146 -0.024112 0.224756 -1 -109 231
0.229468 -0.034638 0.109967 255 -7 -21
0.144455 -0.113689 -0.118435 -1 -255 -1
-0.156273 0.054216 -0.213274 -57 233 -87
0.076282 0.027167 0.469654 17 105 231
0.056569 0.076964 -0.196224 13 239 -87
-0.193272 0.053808 -0.158952 113 -51 223
0.085588 -0.056652 0.347721 -1 -255 -3
-0.173116 -0.113896 -0.062038 -1 -255 -1
0.058426 0.061091 0.436695 -1 -255 -13
0.013415 -0.113161 -0.166136 -1 -255 -1
-0.212306 -0.113465 0.101170 -1 -255 9
-0.218634 0.036130 0.075883 -211 143 -11
0.182348 0.048314 -0.136236 209 147 -5
-0.009573 -0.042117 0.031615 -1 255 -1
-0.221099 0.032598 0.072052 -211 143 -11
0.156504 -0.110327 -0.386696 1 -255 -19
0.059741 -0.055754 0.306592 -1 -255 -3
0.222686 -0.068224 -0.160538 253 -29 11
-0.220962 -0.049705 -0.027627 -253 -31 -7
-0.223930 0.035551 -0.135222 73 -23 243
0.121474 0.082891 0.122922 33 1 253
0.116013 -0.113961 -0.026022 -1 -255 -1
0.105914 -0.013824 0.472256 37 47 247
0.091034 -0.099722 0.285049 -255 1 1
0.125976 -0.068545 -0.259491 1 61 247
0.099418 -0.038496 0.491864 35 -9 253
0.121590 -0.106132 -0.211020 -1 -255 -1
-0.091335 0.037284 -0.135563 -17 71 245
-0.010877 -0.009282 -0.447927 11 -229 111
-0.225698 0.032422 0.379022 -181 173 43
0.080474 0.052568 -0.228826 -3 -255 17
-0.068061 -0.113794 -0.087389 -1 -255 -3
-0.118664 -0.078893 0.221310 -255 -1 -1
0.094582 -0.081469 -0.076182 -1 -129 -219
0.106219 -0.110700 -0.384150 1 -255 -19
0.228804 -0.108873 -0.022578 255 -5 -9
0.177147 -0.014364 -0.417256 211 -145 -3
-0.194757 0.042136 -0.051625 21 253 -29
-0.163558 0.074899 0.184945 141 -211 -5
0.048800 -0.054166 0.240099 -1 -255 -3
-0.148565 0.027393 0.101199 227 101 -59
0.023284 -0.012479 0.479321 9 101 233
-0.070556 -0.013615 -0.148248 7 215 -137
-0.146197 0.034653 0.455780 -49 125 217
0.044467 -0.103668 -0.497359 7 -111 -229
-0.196267 -0.113093 0.188226 -1 -255 1
-0.222902 -0.003663 -0.020801 -253 21 -19
-0.148859 -0.073299 -0.248098 -1 -201 -157
-0.035763 -0.112801 -0.227323 -1 -255 -3
0.108071 0.089348 0.317243 27 251 39
0.020274 0.029520 0.472965 17 111 229
-0.222884 0.007139 -0.006364 -255 21 -13
0.025643 -0.114130 0.091312 -1 -255 9
-0.227077 -0.114776 0.048811 -1 -255 -1
0.184205 -0.113568 -0.099033 -1 -255 -1
-0.221525 0.022306 0.422456 -237 53 79
-0.171233 0.047143 0.440871 -53 147 201
0.172042 -0.013051 -0.417881 49 225 -111
-0.055734 -0.004493 0.474198 -7 97 235
0.114317 0.089343 0.313509 -27 -251 -39
-0.211138 0.059374 0.220115 -177 183 -3
0.219075 -0.063182 -0.079101 251 -47 13
0.226170 0.009352 0.068638 255 15 -7
-0.213343 0.051949 0.170634 -207 147 -11
-0.239600 0.023329 0.267362 -255 -1 -1
-0.155780 0.063564 0.420746 -49 239 73
0.195687 -0.113087 0.114425 -1 -255 9
0.067942 -0.112362 -0.228478 -1 -255 -3
-0.137255 -0.064675 -0.260464 1 -61 -247
0.056970 -0.027433 -0.476095 21 215 -137
-0.007839 -0.039200 -0.497483 -17 -99 -235
-0.143836 -0.024844 0.142682 -1 9 255
-0.125626 0.067311 -0.198691 -71 235 -67
-0.092773 -0.079454 0.438243 -7 -221 129
-0.071611 -0.113009 0.127754 -1 -255 1
0.231851 0.034437 -0.148671 11 -245 -67
0.158708 -0.113089 0.110870 -1 -255 9
0.223932 -0.042603 -0.174685 255 5 7
0.208487 -0.113584 -0.077394 -1 -255 -1
-0.042096 -0.112799 -0.186689 -1 -255 -1
-0.230998 -0.107775 0.211698 -231 -109 3
0.167916 0.064173 -0.176677 121 215 -63
-0.041689 -0.112881 -0.183226 -1 -255 -1
0.160798 -0.045832 0.480925 61 -1 247
-0.164293 0.002658 -0.317880 -1 -233 103
-0.026853 0.074613 0.289090 -9 255 -1
-0.180468 -0.056977 0.343214 -119 3 -225
0.231682 -0.033321 0.411552 -235 9 -99
0.239138 0.028098 0.318700 255 -1 -1
0.086078 -0.054599 0.236131 -1 -255 -3
-0.191917 -0.113370 0.107404 -1 -255 9
-0.135706 -0.113035 0.118474 -1 -255 9
0.011733 0.062820 0.278347 -11 -255 -1
0.130149 0.097605 -0.093289 43 243 -67
0.069874 -0.015441 -0.452186 21 229 -109
-0.119910 -0.103713 0.380651 1 -213 141
0.229006 -0.062529 0.386646 -7 -29 -253
0.222234 -0.044693 0.010675 253 -31 -5
0.217792 0.043394 0.149121 213 139 -15
0.152953 -0.113032 0.115915 -1 -255 9
0.133929 -0.088575 0.409037 -33 -1 -253
-0.172335 -0.114517 0.056461 -1 -255 -1
0.239198 0.011280 0.259667 255 -1 -1
-0.144124 -0.111003 -0.381881 1 -255 -19
-0.074675 0.107337 -0.093739 -43 243 -67
-0.184504 -0.113030 -0.136304 -1 -255 -1
-0.096330 -0.007537 -0.431778 -21 229 -109
-0.175981 -0.112936 -0.194947 -1 -255 -1
-0.123341 0.103338 -0.074047 19 107 231
-0.177427 -0.076655 0.431604 -19 -219 129
-0.096745 -0.054278 0.292499 -1 255 -1
0.050170 0.063044 0.258835 13 -255 -5
0.094894 0.003620 0.473632 29 47 249
-0.062439 0.062563 0.368504 -1 -255 9
-0.161420 0.013560 -0.271324 -1 -255 -23
-0.022227 0.040183 -0.324188 -7 241 -81
-0.138028 -0.114217 0.080271 -1 -255 9
-0.087985 -0.088372 0.423553 -7 -221 129
0.115729 -0.030706 0.078122 -3 141 -213
0.037223 -0.112886 0.206775 -1 -255 1
-0.085850 0.062570 0.386460 -1 255 9
0.186466 -0.104974 0.377976 -1 -213 141
-0.204097 -0.114350 0.014026 -1 -255 -1
-0.004087 -0.107665 0.374955 1 -213 141
0.156844 0.088589 0.243273 59 247 23
-0.098478 -0.110703 -0.388826 -1 255 19
0.214373 -0.093949 -0.144007 239 -85 17
-0.028233 -0.113231 -0.141743 -1 -255 -1
0.125046 0.053200 -0.249471 71 235 -67
0.219969 -0.108786 -0.138396 1 255 -1
-0.206326 -0.069857 -0.389576 -227 15 -113
-0.140225 0.077346 0.365726 -55 245 45
0.221008 -0.042891 -0.057954 -253 23 -3
0.090454 -0.105298 0.264807 -255 1 1
-0.168245 -0.106647 -0.452441 -13 -255 -9
-0.152663 0.089457 0.243945 -59 247 23
-0.190815 0.014099 -0.354317 -95 209 -113
-0.101459 -0.114229 0.009652 -1 -255 -1
0.158083 -0.114453 0.022829 -1 -255 -1
0.068629 -0.111690 -0.310371 -1 -255 -3
0.214925 -0.065181 0.007435 231 -107 9
-0.221513 0.024064 0.422060 -237 53 79
0.089482 -0.112189 -0.242972 -1 -255 -3
-0.002912 -0.054044 0.248236 119 -3 225
-0.166261 -0.113846 -0.039204 -1 -255 -3
0.201134 -0.111504 -0.356106 1 -255 5
-0.151240 -0.025752 -0.451136 -55 215 -127
0.174900 -0.070145 -0.450509 153 -27 -203
0.198261 0.011286 -0.347379 171 135 -131
-0.092202 0.063759 0.354104 -1 255 9
-0.134754 -0.112735 -0.186377 -1 -255 -1
0.134488 -0.112635 0.157651 -1 -255 1
0.054011 -0.013027 -0.451097 23 229 -109
0.002977 -0.107535 -0.454255 1 -255 5
-0.216400 -0.019659 -0.353252 -189 123 -119
-0.107660 0.064423 -0.222794 -13 239 -87
-0.227024 0.001051 0.065694 -255 15 -7
0.219428 -0.072867 -0.114799 251 -47 13
0.222312 -0.062466 -0.190701 255 -1 -1
0.008612 0.063553 0.148354 1 255 1
-0.052259 -0.104031 0.362750 -1 3 -255
0.020932 0.092819 -0.152564 11 243 -75
0.037063 -0.054011 0.236867 -1 -255 -3
0.045089 -0.113117 -0.163460 -1 -255 -1
0.050284 -0.112968 0.181859 -1 -255 1
0.107027 0.082252 -0.169074 47 243 -61
0.067004 -0.113405 -0.100953 -1 -255 -1
0.195658 -0.033396 -0.398354 219 69 -113
0.067598 0.111213 -0.083105 43 241 -71
-0.215226 0.002659 -0.334599 -139 139 -163
0.231659 -0.112410 0.090417 255 -3 -3
-0.162313 -0.111795 -0.375922 1 -255 -19
0.014736 -0.113644 -0.067130 -1 -255 -3
0.117145 -0.114176 0.088470 -1 -255 9
-0.127400 -0.109204 -0.247056 -255 -1 -1
0.067743 -0.111340 -0.351132 -1 -255 -3
0.079048 0.095655 0.144471 -181 179 9
0.054052 0.012688 -0.117423 11 -47 251
-0.158401 0.007674 -0.306411 -1 -233 103
-0.213663 -0.095866 -0.354488 1 1 255
0.133780 0.007859 -0.387626 35 229 -105
0.148413 -0.110379 -0.392489 1 -255 -19
0.238171 -0.098637 0.144487 249 -57 13
0.018582 -0.062792 0.495868 97 -211 105
0.183819 -0.113468 -0.144204 -1 -255 -1
-0.221767 -0.009926 -0.149581 -255 23 1
-0.031750 -0.113611 -0.119756 -1 -255 -1
0.066543 0.038214 -0.320399 19 241 -81
-0.072587 -0.112145 -0.277056 -1 -255 -3
0.168131 -0.088584 0.412873 19 -219 129
-0.056882 -0.079864 0.038007 -9 255 -7
-0.139860 -0.113427 -0.136489 -1 -255 -1
-0.070364 -0.113255 -0.128932 -1 -255 -1
-0.215921 0.026363 -0.041790 -235 99 -25
0.143112 -0.062174 0.462527 23 -219 127
-0.184505 0.082809 0.306410 -1 255 -3
0.084756 -0.054515 0.230693 -1 -255 -3
-0.075882 -0.051637 0.133931 -1 -1 -255
-0.173842 -0.084595 -0.233798 -1 -201 -157
0.035602 0.005487 0.471468 -7 -109 -231
0.015732 -0.112553 -0.255044 -1 -255 -3
0.038493 -0.110742 -0.391170 1 -255 -19
-0.228205 -0.084454 0.389659 7 -29 -253
-0.063569 -0.077789 0.280553 119 -3 225
0.186477 -0.013996 -0.335008 -1 -171 189
0.217686 -0.082115 -0.135386 239 -85 17
0.141094 0.089263 0.274590 59 247 23
-0.198342 0.034992 -0.301236 -65 227 -95
0.064095 0.061332 0.120049 -61 91 231
-0.097286 0.099491 -0.107764 -43 243 -67
0.221746 0.027002 0.030588 223 121 -15
0.180514 0.086425 0.194454 141 -1 -213
0.086904 -0.111527 -0.350860 -1 -255 -3
0.144687 0.070312 -0.178314 57 233 -87
-0.025322 -0.114332 0.080088 -1 -255 9
0.220456 -0.059636 -0.094165 251 -45 13
0.091169 -0.112440 -0.259036 -1 -255 -3
0.149834 -0.113561 -0.103703 -1 -255 -1
0.122667 0.042208 -0.290371 29 241 -75
0.144255 0.064299 -0.193998 57 233 -87
0.181258 -0.029972 0.460899 75 25 243
-0.118051 -0.112903 -0.181457 -1 -255 -1
-0.139646 0.092912 0.243514 -99 235 13
-0.058574 -0.112164 -0.243660 -1 -255 -3
-0.068857 0.110956 -0.084216 -43 241 -71
0.002856 0.062431 -0.239142 7 237 -95
0.136643 0.030952 -0.334106 11 239 -89
0.090545 -0.110348 0.307936 255 -1 -1
0.173323 0.062564 0.083044 173 187 21
0.215876 0.048777 0.170172 207 147 -11
0.184552 0.051305 -0.011705 179 181 -3
-0.213267 0.057856 0.253074 -205 151 -5
-0.224776 0.009008 0.420330 -237 53 79
0.056384 -0.111600 -0.335045 -1 -255 -3
-0.100409 0.072059 -0.203861 -13 239 -87
0.239742 0.028670 0.328580 157 197 33
-0.017481 -0.113993 -0.061164 -1 -255 -1
-0.032583 0.073522 0.248063 1 -1 -255
0.042016 -0.113589 -0.083217 -1 -255 -1
0.089773 -0.086010 -0.471428 51 -65 -241
0.177030 0.056644 -0.057154 195 163 -19
-0.234098 -0.044389 0.153304 -253 3 -29
0.224978 -0.030381 0.037636 253 -33 -5
-0.050146 0.069277 0.271235 -47 251 -5
0.170829 -0.067147 -0.035194 -249 49 -25
