ply
format ascii 1.0
element vertex 1215
property float x
property float y
property float z
property uchar red
property uchar green
property uchar blue
end_header
-0.002748 -0.128594 -0.486962 7 -231 105
-0.102667 -0.003910 -0.276338 -13 253 -27
-0.129422 0.105128 0.193029 -205 151 13
0.116117 0.003312 -0.196278 61 193 -153
-0.197783 -0.081626 0.170027 -255 -13 9
-0.199491 -0.066509 0.318654 7 -255 -19
-0.146417 -0.169740 0.200684 1 -255 1
-0.048207 0.112993 0.315455 -9 255 17
0.189451 -0.132348 -0.172541 255 -13 -13
0.049988 0.107251 0.369974 7 249 51
-0.099360 -0.165576 0.371301 1 -255 7
0.178973 -0.069785 -0.377108 247 47 -37
0.167271 0.015639 -0.144183 195 155 -55
-0.187910 -0.169946 0.220478 1 -255 1
-0.127611 -0.062220 0.308085 1 -255 -13
0.075302 -0.036077 -0.430612 13 235 -97
-0.060195 0.110540 0.343733 -7 253 25
0.192157 -0.136400 -0.058281 255 -15 -5
0.061217 0.096726 0.394764 13 177 183
0.069399 -0.168056 0.286482 -3 -255 5
0.160282 -0.054909 -0.263050 1 -255 1
-0.096079 0.080762 0.405396 -27 171 187
0.037383 -0.170318 -0.444868 1 -253 -31
-0.080516 0.030986 -0.169727 -43 209 -139
-0.126074 -0.120069 -0.472753 -81 -53 -235
-0.197147 -0.075330 0.130925 -255 -11 5
-0.135995 -0.117839 0.401917 1 -95 -237
0.164605 0.036717 0.292854 223 125 9
0.093034 -0.089789 -0.484922 41 143 -207
0.193884 -0.100706 -0.098987 253 -25 -5
0.103867 0.114579 0.215964 29 253 9
-0.137490 -0.070134 -0.331359 1 -225 119
0.171123 0.028117 0.209642 235 97 7
-0.025995 -0.083214 0.499345 -1 239 89
0.011716 0.119329 0.198680 3 255 7
0.097059 0.003328 -0.216277 23 251 -43
-0.157325 -0.169855 0.137811 1 -255 1
0.013381 -0.175120 -0.188917 -3 -255 5
0.086820 -0.113196 -0.485788 49 -61 -243
0.193647 -0.134626 -0.000539 255 -15 -5
0.186892 -0.086810 0.258896 1 -113 229
0.156003 0.051893 0.319184 223 123 5
0.101736 -0.003364 -0.273023 15 253 -27
-0.172486 -0.031053 0.449378 -197 37 157
0.072602 0.032070 -0.170556 43 209 -139
-0.140781 -0.024921 -0.384026 -31 243 -71
-0.113425 -0.161313 -0.197519 -255 1 1
0.152332 0.049882 -0.106041 173 171 -77
-0.057732 -0.010833 -0.331265 -11 249 -51
0.190399 -0.171980 0.239206 219 -131 13
-0.114130 0.075577 0.405275 -87 171 167
0.142480 -0.175016 -0.400584 1 -253 -33
0.006550 -0.169541 0.147187 -3 -255 5
0.118068 -0.131058 0.340482 255 1 1
-0.083602 0.033916 -0.163696 -43 213 -133
-0.193062 -0.035270 -0.008326 -251 45 -5
0.148749 -0.035604 -0.415500 41 235 -89
0.197179 -0.079002 0.385516 227 73 89
-0.089767 0.114742 0.235025 -17 255 11
-0.047405 0.106301 0.374847 -5 249 53
-0.102750 -0.082024 0.487919 23 253 15
0.142452 -0.005080 -0.272207 27 253 -27
0.184694 -0.014255 0.356773 243 75 19
0.014254 -0.175047 -0.165204 -3 -255 5
0.200223 -0.071365 0.362320 255 1 13
0.016923 -0.167219 0.316940 -3 -255 5
0.193989 -0.162311 0.226394 255 -15 1
-0.137145 0.014177 -0.172559 -57 201 -145
-0.114480 -0.102636 0.493674 -63 1 247
0.105363 -0.171179 -0.080059 15 -255 1
0.176059 -0.076366 -0.403013 247 47 -43
-0.079767 0.117907 0.151656 -17 255 3
0.156563 0.062850 0.132020 225 119 5
-0.146428 0.072337 0.002279 -225 119 -11
0.178309 -0.029579 -0.313804 219 127 -25
0.059578 0.112081 0.328110 9 255 19
0.129429 0.014871 -0.174749 59 207 -137
0.130278 -0.170456 -0.096852 1 -255 1
-0.148888 0.055142 0.394883 -219 129 25
0.124592 0.000752 -0.225932 9 255 -19
0.069157 -0.021238 -0.380958 7 249 -51
0.088191 -0.028411 0.476588 19 23 253
-0.187896 -0.012743 0.030310 -243 75 -5
-0.178906 -0.004485 0.390598 -239 87 21
-0.014328 -0.175639 -0.394998 1 -253 -31
0.192979 -0.104341 -0.122040 253 -25 -5
-0.052201 0.069077 0.419786 -13 167 193
0.072586 -0.093123 -0.489923 49 7 -251
0.178904 0.012004 0.163516 235 97 5
0.128222 0.060805 -0.105030 41 217 -127
0.177732 -0.020900 0.428108 247 43 51
-0.009010 -0.168086 -0.471793 -17 -99 -235
0.112691 -0.167793 0.300801 1 -255 7
-0.001189 0.116428 0.043676 -3 253 -25
0.116541 0.115074 0.111274 25 253 -3
0.096111 0.116749 0.096905 13 255 -3
0.039881 0.015601 -0.203568 19 209 -145
-0.193761 -0.031458 0.121258 -251 45 3
0.003858 -0.174927 -0.188654 -3 -255 5
0.045668 -0.171325 0.088419 -3 -255 5
0.117793 -0.170476 0.021267 1 -255 1
-0.200298 -0.057131 0.332445 -231 107 15
-0.194645 -0.039978 0.033630 -253 37 -9
0.024244 0.002031 -0.255595 9 253 -25
0.100152 -0.158403 0.471744 33 -187 169
0.087118 0.032587 -0.164929 43 213 -133
0.010852 0.107449 0.370509 1 249 53
-0.196080 -0.120851 0.245830 9 -87 239
-0.127661 -0.156747 -0.455246 -77 -129 -205
0.054904 -0.051629 -0.465662 19 179 -181
-0.063662 -0.174098 -0.219563 -15 -255 1
-0.020520 -0.172327 -0.012239 3 -255 5
-0.150226 -0.132931 0.407818 1 -95 -237
-0.173595 -0.170580 -0.147003 1 -255 1
-0.194183 -0.141404 0.077080 -255 -15 -1
-0.193648 -0.118581 -0.048868 -253 -23 -5
-0.152642 -0.002703 -0.240431 -45 251 -21
-0.163748 0.039803 0.274224 -223 121 9
-0.080897 0.011819 -0.198130 -45 207 -141
-0.190108 -0.049978 -0.221009 -247 61 7
0.186691 -0.014816 -0.034533 243 75 -5
-0.185424 -0.003240 0.135751 -237 93 3
0.083748 -0.177960 -0.366486 1 -255 9
0.072603 0.091389 -0.063451 25 227 -113
0.170519 -0.078576 0.372373 1 -207 -149
-0.147619 0.074917 0.067909 -227 117 -3
-0.015229 -0.157401 0.444105 -3 -247 59
-0.007140 0.120126 0.129125 -3 255 -5
-0.112045 -0.170639 -0.433797 -3 -253 -31
-0.034147 -0.169682 0.177066 3 -255 5
-0.132676 -0.005845 -0.290874 -27 251 -31
-0.017180 0.081909 -0.094718 -11 235 -99
-0.102274 -0.176696 -0.336017 1 -255 9
-0.189160 -0.133613 0.413146 -209 -43 141
0.144962 -0.011583 -0.317655 29 251 -41
-0.110126 -0.170733 -0.025188 -15 -255 1
0.149572 0.015279 0.445002 99 147 183
0.176824 0.005063 0.371193 237 93 17
-0.067124 0.118123 0.185461 -11 255 7
0.025161 0.115744 0.037830 3 253 -25
0.094836 0.020150 0.464847 7 179 183
0.147724 -0.170193 0.098611 1 -255 1
0.127804 0.110432 0.082480 171 189 -7
0.035633 -0.174820 -0.152309 -3 -255 5
-0.196451 -0.105482 0.071053 -253 -23 1
-0.095771 -0.146779 0.482652 -23 -149 207
-0.141573 -0.077789 -0.346928 1 -225 119
0.172088 -0.167905 0.234189 1 -29 253
-0.191495 -0.022594 0.053627 -243 75 -5
0.195020 -0.059198 -0.236377 225 115 37
-0.097322 0.093606 -0.049693 -29 239 -81
-0.196295 -0.089828 -0.098617 -173 -187 -1
-0.080336 0.028612 -0.173061 -43 209 -139
0.144439 -0.170101 0.088256 1 -255 1
-0.163606 -0.150509 -0.432403 -221 -39 -121
0.194821 -0.091490 0.179050 253 -23 11
-0.024065 -0.176449 -0.289064 -15 -255 1
-0.049977 0.037986 0.445254 -13 161 197
-0.076725 0.091863 -0.062361 -19 241 -79
-0.140859 -0.151275 -0.449847 -49 227 -105
0.186654 -0.010712 0.198772 243 81 3
0.074627 -0.170060 0.177552 -3 -255 5
0.074731 0.028844 0.451058 15 159 199
-0.070090 0.118481 0.131835 -9 255 -5
-0.181283 -0.170433 0.080800 1 -255 1
-0.098100 -0.000092 -0.239762 -17 253 -17
-0.171715 -0.070229 -0.332539 1 -225 119
0.003998 -0.166894 0.309181 -3 -255 5
0.151573 -0.153031 0.235538 1 -29 253
-0.069230 -0.173325 -0.026050 -15 -255 1
-0.022648 -0.001850 -0.289533 -9 251 -39
0.145066 0.072599 -0.018264 219 129 -13
0.055132 -0.167234 0.307156 -3 -255 5
0.126792 -0.090241 0.493026 47 -23 249
-0.176452 0.006623 -0.020846 -237 95 -5
-0.178985 -0.150569 -0.192018 1 -9 -255
0.185555 -0.046389 0.408368 249 33 39
0.024645 0.112244 0.004594 5 251 -47
0.163006 0.042777 0.229430 225 119 5
0.036310 0.117821 0.072339 3 255 -13
0.191654 -0.123026 -0.123521 255 -15 -5
0.206516 -0.007175 -0.117289 55 -223 -109
-0.177605 -0.017212 -0.212627 -199 157 -21
0.160532 -0.169879 0.149659 1 -255 1
-0.177261 -0.045011 -0.349862 -237 91 -31
0.121024 0.062011 0.415741 85 171 167
0.160095 -0.093017 -0.203318 1 -61 -247
-0.060430 -0.168033 0.264603 3 -255 5
-0.134612 -0.076283 0.485151 -11 199 159
0.012977 -0.171783 0.021859 -3 -255 5
0.138250 0.083495 0.288367 205 151 11
-0.000424 0.008428 0.469746 -5 93 237
0.196026 -0.095205 0.131898 255 -23 5
0.103018 -0.171267 -0.108991 15 -255 1
0.028838 -0.174858 -0.149813 -3 -255 5
0.129667 -0.161381 -0.451439 77 -129 -205
0.051638 -0.171018 0.112608 -3 -255 5
-0.191967 -0.129604 -0.195046 -253 -35 1
0.077508 0.031890 -0.169049 43 209 -139
0.102799 -0.171227 -0.004372 15 -255 1
0.093314 -0.171636 0.087194 15 -255 1
-0.042798 -0.150786 0.471783 -3 -247 59
0.195597 -0.095885 0.155527 253 -23 9
0.198595 -0.084594 -0.214748 195 121 113
0.099500 -0.137406 0.488524 41 -111 225
-0.048544 -0.058103 -0.469881 -11 -227 -117
-0.036634 -0.168461 0.225798 3 -255 5
-0.077833 0.064645 0.421581 -13 167 193
-0.099367 0.084420 0.402055 -27 171 187
-0.094142 -0.087680 0.498558 -13 -3 255
-0.097847 -0.025296 -0.396443 -9 245 -69
-0.082844 0.032001 -0.167623 -43 209 -139
0.126787 0.098806 -0.020933 147 203 -49
-0.170498 -0.170521 -0.145034 1 -255 1
-0.113754 -0.021873 -0.382140 -15 247 -63
0.191665 -0.135804 -0.090612 255 -15 -5
0.073274 0.112046 0.311663 15 255 15
0.078360 0.088035 0.401512 31 167 189
-0.132439 0.102545 0.034539 -209 147 -13
0.067012 -0.034535 -0.428438 17 237 -93
0.139350 -0.040538 -0.430952 33 235 -93
-0.064329 -0.177208 -0.341668 1 -255 9
-0.132059 0.100328 0.012158 -175 183 -27
-0.038710 -0.175955 -0.247875 -15 -255 1
-0.185224 -0.018157 -0.118178 -239 87 -11
0.191521 -0.066337 -0.185529 255 13 -15
-0.192296 -0.063147 -0.209602 -253 25 11
0.170107 0.029958 0.091958 237 95 -3
-0.171549 -0.082704 -0.207241 1 -203 -153
-0.060788 -0.169044 0.226142 3 -255 5
0.180082 -0.134426 0.434411 241 -61 53
0.005421 0.092754 0.400804 5 163 195
0.192535 -0.130962 -0.052167 255 -15 -5
-0.082922 0.117281 0.167333 -17 255 3
0.007427 0.044178 -0.163605 17 217 -133
-0.182967 -0.008390 -0.092466 -247 65 -7
0.177825 -0.000553 0.382458 237 89 25
-0.147693 0.077125 0.166706 -225 119 7
-0.063521 0.079384 -0.092118 -29 231 -105
0.190649 -0.168462 -0.153346 243 -77 -7
-0.037299 -0.014248 0.477435 -5 85 241
-0.193785 -0.098963 0.182227 -253 -23 11
-0.145477 -0.053111 0.468965 -105 -5 233
0.001684 -0.152614 0.462978 3 -247 59
-0.132044 0.099360 0.003485 -175 183 -27
0.167068 0.024425 -0.078512 231 107 -17
-0.010826 -0.003187 0.474411 -5 87 239
-0.059617 0.115688 0.258396 -11 255 13
0.102110 -0.171549 -0.092036 15 -255 1
0.165587 0.030506 0.366992 227 115 11
-0.119285 -0.170647 -0.165767 1 -255 1
0.089634 -0.171893 -0.426677 1 -253 -31
0.183963 -0.012923 -0.120871 237 -93 -3
-0.182702 -0.086876 -0.370255 -245 37 -59
-0.100082 -0.171247 0.100752 -15 -255 1
0.089856 -0.116029 -0.484725 49 -61 -243
0.195203 -0.055512 0.200541 255 13 7
-0.186589 -0.032054 -0.174571 -247 63 -13
0.167960 0.022228 -0.086544 231 107 -17
0.000127 0.090329 0.402784 -5 163 195
-0.141668 0.073659 0.329793 -215 135 11
0.112590 -0.168328 0.300932 1 -255 7
0.174994 -0.016967 -0.252404 191 167 -17
-0.142178 0.067470 0.379363 -211 141 19
0.126869 -0.170212 0.055620 1 -255 1
-0.084024 -0.172752 -0.215116 -15 -255 1
-0.154881 0.002147 -0.195348 -53 245 -43
-0.159240 0.026886 0.424191 -221 119 39
0.124908 -0.163425 -0.451763 77 -129 -205
0.055637 -0.017200 -0.362574 9 249 -51
-0.086730 -0.172396 -0.121536 -15 -255 1
0.186169 -0.082398 -0.354842 -231 -59 91
-0.018882 -0.002368 -0.290241 -9 251 -39
-0.096563 -0.171489 -0.036474 -15 -255 1
-0.022911 0.113696 0.313832 -3 255 19
0.040113 0.033780 0.449499 3 159 199
-0.070240 0.081937 0.406939 -13 165 193
-0.125271 0.111499 0.161993 -117 227 7
-0.133946 0.099780 0.028473 -209 147 -13
-0.004388 0.037773 0.447370 -3 161 199
0.043862 -0.018390 -0.372218 9 249 -51
-0.192576 -0.035305 -0.037861 -251 43 -5
-0.118234 0.001050 -0.226794 -9 255 -19
0.192218 -0.055619 -0.158479 253 37 -9
0.077163 0.117802 0.152994 17 255 3
0.174329 -0.030165 -0.340317 213 137 -31
-0.187488 -0.168714 -0.186212 -237 -83 -45
0.132211 -0.169977 0.159625 1 -255 1
0.056993 -0.133365 0.495649 25 -101 233
0.033188 0.030525 0.451431 3 159 199
0.182513 -0.020637 -0.174684 239 89 -17
-0.130711 -0.060590 -0.314045 1 -225 119
0.018314 -0.172032 0.001062 -3 -255 5
0.099402 -0.171808 -0.136410 15 -255 1
-0.036083 -0.176054 -0.395581 1 -253 -31
-0.105421 -0.169407 0.229670 3 -255 5
-0.172261 0.022145 0.038626 -237 93 -7
-0.157930 0.055095 0.061717 -231 109 -3
-0.168982 -0.078011 0.473308 -163 163 109
-0.152241 -0.070535 0.287474 1 -227 115
-0.193846 -0.053841 -0.108686 -253 35 -7
0.133295 -0.100885 -0.473864 81 31 -239
-0.181102 0.001669 0.085583 -237 93 -3
-0.193369 -0.110999 0.169305 -253 -23 11
0.022337 0.111064 0.345174 3 253 29
0.192386 -0.158264 -0.117793 255 -5 -7
0.036312 0.112856 0.010013 3 253 -25
0.116845 -0.042368 -0.441436 23 203 -153
-0.194914 -0.096034 0.165357 -253 -23 9
0.086876 -0.043449 -0.447942 29 211 -141
-0.110477 -0.152187 0.459267 1 -247 67
-0.115065 -0.170303 0.059295 -15 -255 1
-0.088930 -0.176615 -0.390370 1 -253 -31
0.138698 0.085675 -0.032952 209 145 -23
0.153598 0.053224 0.335080 221 127 11
-0.167811 0.033862 0.230224 -235 101 7
-0.173608 0.017529 0.297162 -231 109 1
-0.199353 -0.081706 0.040874 -255 -11 -3
0.194022 -0.089580 0.199302 253 -23 11
-0.077687 -0.173011 -0.180133 -15 -255 1
-0.057890 -0.014222 -0.348551 -9 249 -51
-0.194237 -0.052119 0.219497 -255 17 7
-0.167910 -0.170975 -0.137795 1 -255 1
0.176524 -0.036007 0.444693 241 39 75
0.194883 -0.082798 -0.136243 143 211 -7
0.193823 -0.116714 0.139664 255 -13 9
0.147775 -0.170328 -0.029783 1 -255 1
-0.049225 -0.174669 -0.230341 -15 -255 1
0.192405 -0.113114 0.187996 253 -23 11
-0.059774 -0.096168 -0.494110 -47 -5 -251
0.163989 -0.089701 0.387432 1 -207 -149
0.168935 0.020980 -0.080538 231 107 -17
0.196237 -0.163894 0.063904 255 -5 -3
0.194535 -0.086247 0.234954 253 5 -39
0.114016 -0.109631 -0.342216 255 1 1
0.175229 -0.170512 0.090153 1 -255 1
-0.096869 -0.175795 -0.319678 1 -255 9
-0.099804 0.116776 0.137705 -27 253 3
0.128081 -0.169754 0.185804 1 -255 1
0.067905 -0.139877 -0.473167 37 -129 -217
0.118266 -0.162373 0.378818 255 1 1
-0.001519 -0.016378 -0.372350 -9 249 -51
-0.164433 -0.117877 0.473921 -191 -47 161
-0.185482 -0.111723 0.246807 1 -113 229
-0.113898 -0.139576 -0.323195 -255 1 1
-0.184274 -0.013112 -0.122581 -237 -93 -3
-0.172578 0.022722 0.246951 -233 103 3
-0.195225 -0.042192 0.130358 -251 45 1
0.132265 0.080432 -0.067568 45 227 -107
0.105149 -0.175336 -0.310935 1 -255 9
-0.126391 -0.170029 0.057195 1 -255 1
0.191025 -0.025100 0.012823 243 75 -7
-0.077315 0.101130 -0.034324 -25 241 -81
-0.066199 -0.161348 0.424521 1 -247 67
-0.084796 -0.024926 -0.395558 -9 245 -69
-0.167692 0.027981 -0.111005 -219 127 -21
-0.112986 -0.173830 -0.263508 1 -255 9
0.007190 -0.164978 0.405501 1 -255 7
0.107108 -0.130839 0.489864 41 -111 225
-0.040220 -0.022133 -0.392193 -11 251 -47
0.099370 0.102573 -0.022663 21 249 -51
0.128397 0.097508 0.279740 209 145 15
-0.193642 -0.172131 0.082643 -217 -133 -3
0.177122 -0.000390 -0.097116 237 91 -9
-0.193292 -0.093957 0.223591 -253 -23 -7
-0.032916 -0.174291 -0.409636 1 -253 -31
0.196699 -0.052847 0.140336 255 13 7
0.184593 -0.116712 -0.371119 237 9 -93
0.078013 0.117524 0.094584 13 255 -3
-0.092825 -0.171662 0.060010 -15 -255 1
0.189034 -0.126261 0.413260 213 9 139
0.123083 0.101744 0.314718 183 177 17
-0.044605 -0.176890 -0.351210 1 -255 9
-0.026282 0.115073 0.287619 -3 255 13
0.132217 -0.025651 -0.391666 31 243 -71
0.002031 -0.167488 0.281920 -3 -255 5
0.196872 -0.048649 0.058162 253 37 -3
0.050282 -0.172588 -0.007671 -3 -255 5
0.032785 -0.154272 0.481246 5 -199 159
-0.085140 0.112825 0.285804 -17 255 11
0.179065 0.007178 0.082455 237 93 -3
-0.171373 -0.008578 -0.205398 -177 181 -29
0.183832 -0.007203 -0.037644 245 73 -5
-0.118585 -0.132702 0.330321 -255 1 1
-0.070533 0.040026 -0.158025 -43 213 -133
0.196524 -0.161885 0.112847 255 -7 -3
-0.166045 0.030261 0.354253 -227 115 13
-0.118383 -0.151685 -0.459902 -41 227 -107
0.185277 -0.171028 -0.156007 1 -255 1
-0.030085 -0.176234 -0.251383 -15 -255 1
0.052421 0.084302 -0.084184 23 233 -99
-0.168374 -0.090747 -0.441737 -243 49 -59
-0.044581 0.116913 0.059629 -9 255 -13
-0.168108 0.034033 0.084509 -231 109 -3
0.186185 -0.024755 0.372486 245 65 27
-0.168418 -0.007871 -0.220926 -177 183 -17
-0.117604 0.114667 0.147733 -25 253 5
-0.042697 0.114379 0.028715 -9 253 -25
0.146529 0.072097 0.004575 225 119 -11
-0.098889 0.058661 0.424683 -33 163 193
0.065936 -0.067463 0.478675 19 -17 253
0.104749 0.110498 0.022948 35 251 -31
-0.196862 -0.072355 0.145663 -255 -13 9
-0.047772 0.118241 0.197801 -11 255 7
-0.192710 -0.168389 -0.072841 243 77 5
-0.190092 -0.051728 -0.211909 -247 61 7
0.197964 -0.068794 0.093256 255 13 1
0.047741 -0.166222 0.351786 1 -255 7
0.192724 -0.151328 0.218310 195 163 -27
0.003680 -0.165450 0.370793 -3 -255 5
-0.170745 -0.048511 0.453787 -193 17 165
-0.047885 0.085745 -0.081823 -23 233 -99
-0.025807 -0.165660 0.382955 1 -255 7
-0.002055 -0.021951 -0.398386 -11 245 -71
0.050817 -0.171931 0.056092 -3 -255 5
0.018927 0.088043 -0.080414 9 233 -101
0.008471 -0.167021 0.305661 -3 -255 5
-0.176468 -0.068359 -0.391886 -247 41 -43
0.085970 0.112862 0.032751 17 253 -27
0.189404 -0.021320 -0.012546 243 75 -7
-0.021105 -0.170669 -0.438909 1 -253 -31
0.175071 -0.162762 0.420967 207 -89 119
0.055308 -0.023624 -0.394703 13 245 -69
-0.077879 -0.173017 -0.241744 -15 -255 1
0.151484 0.058087 0.331755 221 127 11
0.187224 -0.080820 0.412655 249 9 55
0.105336 0.116236 0.132982 25 253 -3
-0.113980 -0.100364 -0.312901 -255 1 1
0.170080 -0.016914 -0.294674 173 185 -23
-0.153728 0.055394 -0.028489 -225 119 -9
0.188036 -0.177261 -0.058381 217 -133 -5
0.151527 -0.158445 0.411958 1 -33 -253
-0.118485 -0.148839 0.331021 -255 1 1
0.025473 0.107865 -0.018496 5 251 -47
-0.003284 -0.168797 0.194714 3 -255 5
0.109262 -0.170816 0.044234 15 -255 1
0.039434 0.117913 0.220285 11 255 9
0.047440 -0.175273 -0.189657 15 -255 1
-0.171190 -0.064119 -0.419110 -241 71 -41
0.166318 -0.075710 -0.216840 1 -203 -153
0.160887 -0.095772 0.254263 1 -113 229
-0.192517 -0.110500 -0.136205 -253 -25 -7
0.048965 -0.068242 0.479051 5 -17 255
0.014366 -0.171840 0.026689 -3 -255 5
-0.188543 -0.135792 -0.178612 -255 -13 13
0.106115 0.112085 0.254344 29 253 13
-0.148232 0.068400 0.267066 -221 129 13
-0.106119 -0.168460 0.285006 1 -255 7
-0.160432 -0.065275 0.462973 -83 143 195
-0.030308 -0.043651 -0.457150 -19 219 -129
-0.029671 -0.054812 -0.471722 -15 161 -197
-0.180805 -0.043979 0.429966 -249 19 53
0.120468 0.104524 0.002489 35 247 -49
0.075059 -0.171482 0.102921 -3 -255 5
-0.136360 0.091001 0.232350 -217 133 13
0.118295 -0.132998 0.370759 255 1 1
0.129786 0.098112 -0.016581 119 221 -39
-0.141573 0.066327 -0.090220 -157 187 -75
-0.191256 -0.149457 0.209386 -189 171 -7
0.187255 -0.044279 -0.284369 211 139 -37
-0.142959 -0.153480 -0.449084 -105 -107 -205
-0.008624 -0.167331 0.258369 3 -255 5
-0.004106 -0.177716 -0.347704 3 -255 5
-0.201180 -0.061088 0.340964 -237 87 33
0.174499 0.009151 -0.066418 237 93 -5
-0.196246 -0.156128 0.074224 -255 19 -3
-0.167341 -0.006306 -0.216087 -157 197 -35
0.129769 -0.004091 -0.274620 13 253 -27
0.192628 -0.134045 0.408051 239 -65 59
-0.076230 0.077548 0.410311 -13 167 193
0.195520 -0.070479 -0.219590 241 63 51
-0.194567 -0.044007 0.003442 -251 45 -5
-0.040592 0.008798 0.468831 -5 93 237
-0.051865 -0.169948 -0.441224 1 -253 -31
-0.112770 -0.045921 -0.445116 -23 203 -153
0.185978 -0.126510 -0.362230 -7 -81 241
0.195291 -0.053471 0.356693 233 95 35
-0.033768 0.111100 0.346050 -3 253 29
0.191122 -0.135723 0.186511 255 -13 11
-0.135567 -0.098613 0.489801 -29 -217 131
0.192046 -0.111594 -0.131706 253 -25 -7
-0.074507 -0.171971 -0.462474 53 103 227
0.198505 -0.079995 0.016098 143 211 -5
0.046670 0.114762 0.293022 11 255 13
-0.086145 -0.176995 -0.350604 1 -255 9
0.159052 -0.170498 0.006089 1 -255 1
-0.157593 -0.035177 -0.406579 -105 221 -69
-0.172240 -0.091755 -0.428064 -243 49 -59
0.175649 0.014919 0.247879 233 103 3
-0.132209 -0.080100 -0.462315 -77 55 -237
-0.174005 0.019180 0.269786 -231 107 1
-0.186625 -0.011431 0.262162 -237 95 -3
0.196868 -0.094313 0.021238 255 -11 -3
0.021045 -0.092342 -0.496090 15 143 -211
0.033082 -0.154019 0.454508 3 -247 59
0.068064 0.001819 -0.241707 17 253 -17
-0.193626 -0.122776 -0.034292 -255 -15 -5
0.169945 0.029370 0.072825 237 95 -3
0.116820 -0.114432 -0.477334 81 -53 -235
-0.151654 -0.068620 0.358522 1 -207 -149
-0.060087 -0.160390 0.428038 1 -247 67
-0.177090 0.011395 0.072854 -237 93 -3
0.033849 -0.174778 -0.153223 -3 -255 5
-0.011944 -0.166183 0.342760 3 -255 5
0.086246 -0.173710 -0.257126 1 -255 9
0.061146 -0.172783 0.009759 -3 -255 5
0.191219 -0.037067 -0.111924 247 67 -9
0.190189 -0.136278 -0.140944 255 -15 -7
0.192638 -0.107745 -0.118791 253 -25 -5
-0.146523 -0.170488 0.082314 1 -255 1
0.196903 -0.095954 0.072194 255 -11 1
0.174523 -0.170590 -0.043834 1 -255 1
-0.168385 -0.029217 0.453031 -197 37 157
0.118779 -0.132338 0.373897 255 1 1
0.187407 -0.090297 0.420108 249 -1 53
-0.118023 -0.144536 0.310965 -255 1 1
-0.198066 -0.077887 0.038341 -255 -11 -3
-0.001592 0.004148 -0.244628 -11 251 -43
0.059380 -0.169946 0.176053 -3 -255 5
0.047313 -0.088540 -0.490764 15 143 -211
-0.195596 -0.045848 0.293932 -243 77 -5
-0.146234 0.078081 0.097137 -227 117 -3
0.085454 -0.172127 0.035172 15 -255 1
-0.074608 -0.173520 -0.238541 -15 -255 1
0.089934 -0.030562 -0.415705 9 245 -69
0.181913 0.005242 0.110421 237 95 1
0.058984 -0.144185 -0.474069 1 -255 1
-0.188838 -0.063984 0.344111 1 -255 -13
0.113542 -0.164199 -0.240870 255 1 1
-0.120662 -0.070454 -0.223555 1 -203 -153
0.148001 -0.018312 -0.353914 43 247 -47
0.039097 -0.003241 -0.292952 11 251 -39
0.081571 0.091973 -0.060347 29 239 -81
-0.144071 -0.095750 -0.202872 1 -61 -247
-0.053569 -0.174512 -0.095940 3 -255 5
-0.016947 -0.176966 -0.317329 -15 -255 1
0.175533 -0.019161 -0.270162 197 161 -19
0.178594 -0.079127 -0.390960 251 13 -43
-0.046046 -0.144459 -0.479549 -1 -255 1
-0.143544 0.077411 -0.026651 -151 -181 95
0.194202 -0.103656 0.232291 239 9 -85
-0.192852 -0.117860 -0.085064 -253 -25 -5
0.156061 -0.172770 -0.415168 1 -253 -33
0.035619 0.065374 0.423582 3 167 193
-0.015055 -0.148101 0.488491 -7 -139 215
-0.067553 -0.167847 0.289037 3 -255 5
0.113413 -0.164078 -0.220370 255 1 1
-0.129374 0.103288 0.014589 -175 183 -27
-0.167274 0.027504 -0.042116 -231 109 -9
-0.116903 -0.170128 0.113662 -15 -255 1
-0.189866 -0.026733 -0.045157 -243 73 -7
-0.034707 0.053691 -0.144830 -17 219 -129
0.193901 -0.132375 0.101146 255 -13 5
0.085329 0.027560 -0.173425 43 209 -139
0.027544 -0.174574 -0.143892 -3 -255 5
-0.063865 0.118496 0.144196 -9 255 3
0.027177 0.099214 -0.049866 7 241 -81
-0.096040 -0.178146 -0.362997 1 -255 9
-0.180464 -0.067116 -0.326657 1 -225 119
0.029799 -0.172183 0.020257 -3 -255 5
-0.058006 -0.007662 -0.315602 -9 251 -39
0.118009 -0.160941 0.350476 255 1 1
0.183824 -0.081396 0.427082 247 3 65
-0.086715 -0.172553 -0.147616 -15 -255 1
0.023417 -0.021806 -0.392881 11 251 -47
0.135122 0.101752 0.116401 205 153 3
0.084786 -0.172737 -0.106396 15 -255 1
0.160202 0.022882 0.427812 161 155 123
0.125925 -0.154348 -0.375536 1 -21 255
-0.193279 -0.134743 -0.005422 -255 -15 -5
0.187279 -0.008949 0.142363 243 79 3
0.185944 -0.035139 -0.218403 241 85 -3
-0.016022 -0.178141 -0.362923 1 -255 9
-0.097059 -0.086421 0.497787 -9 219 131
0.195636 -0.064647 -0.057185 255 13 -5
-0.033234 0.118744 0.196378 -3 255 7
-0.103786 0.112424 0.254626 -29 253 13
-0.028620 -0.020623 -0.385920 -11 251 -47
0.020035 0.119765 0.155340 3 255 1
0.072009 -0.167572 0.319036 1 -255 7
0.196359 -0.096514 0.113700 255 -23 5
-0.053522 -0.172782 -0.014887 3 -255 5
-0.107727 -0.171209 -0.015809 -15 -255 1
-0.191784 -0.131991 -0.075828 -255 -15 -5
-0.106528 -0.003176 -0.280496 -13 253 -27
-0.122256 0.106953 0.260881 -177 183 15
-0.003139 -0.172082 -0.424998 1 -253 -31
0.193919 -0.122964 0.126424 255 -13 5
0.050043 -0.167150 0.304334 -3 -255 5
-0.107670 -0.170205 0.203594 3 -255 5
0.197377 -0.087523 -0.063609 255 -13 -5
0.010188 -0.170747 0.081994 -3 -255 5
-0.059691 -0.169758 0.172726 3 -255 5
-0.194156 -0.068924 -0.215675 -235 79 61
-0.143813 -0.092162 0.488534 -85 -25 239
-0.187507 -0.012360 0.192874 -241 81 3
-0.020829 0.037259 0.446579 -3 161 199
0.185406 -0.093886 0.391438 1 -95 -237
-0.175247 0.010835 -0.014637 -237 95 -7
-0.131698 0.105647 0.070155 -207 147 -5
0.052992 -0.168958 0.228754 -3 -255 5
-0.132542 0.089045 0.314173 -211 143 15
0.085281 0.117435 0.143762 15 255 3
0.184772 -0.005715 0.013934 245 71 -7
0.129767 -0.170652 -0.005598 1 -255 1
-0.106898 0.116175 0.130629 -25 253 -3
-0.194687 -0.071639 0.222634 -255 -13 -7
-0.074509 -0.172948 -0.082688 -15 -255 1
-0.056591 0.027120 -0.183270 -45 211 -135
0.128889 0.099751 0.257930 201 155 15
-0.065346 -0.055378 -0.467265 -41 175 -181
0.047223 -0.039578 -0.444779 13 237 -93
0.059090 0.058774 -0.130999 35 217 -127
0.029651 -0.168394 0.231151 -3 -255 5
-0.087454 -0.171971 0.030962 -15 -255 1
-0.149032 -0.170543 -0.115988 1 -255 1
0.178120 -0.174923 -0.386480 -249 15 49
-0.113647 -0.157424 -0.359738 -255 1 1
0.182671 -0.132283 0.425237 239 -61 65
-0.108523 -0.044587 0.475728 -47 -9 251
0.187172 -0.013333 0.235312 241 85 -1
0.065635 -0.167584 0.324252 1 -255 7
0.064283 -0.173574 -0.136462 15 -255 1
-0.134327 -0.170114 0.059069 1 -255 1
0.184256 -0.008030 0.339501 235 99 13
0.178294 -0.015354 -0.192097 205 149 -23
-0.020527 0.119762 0.140784 -3 255 1
-0.141628 -0.173720 -0.439145 -79 -129 -205
0.198059 -0.083323 -0.039549 255 -11 -5
0.057037 -0.169135 0.206834 -3 -255 5
-0.010743 -0.165097 0.402764 1 -255 7
0.129610 0.025180 0.447125 37 159 195
0.117206 0.086979 -0.059145 35 229 -107
0.022254 0.009057 0.468746 3 159 199
0.179149 0.008995 0.193086 235 101 5
-0.192298 -0.029960 0.282715 -249 53 -1
-0.105925 0.115910 0.142551 -25 253 5
0.085149 -0.175184 -0.304301 1 -255 9
0.158095 -0.163710 -0.434163 127 -99 -197
-0.029116 -0.122842 -0.499284 -23 181 -179
0.066330 -0.065878 -0.467402 39 91 -235
0.128216 0.109180 0.063948 171 189 -7
-0.139983 -0.169674 0.177367 1 -255 1
0.020985 0.113346 0.013945 3 253 -25
-0.193564 -0.142678 0.227754 -249 -1 -55
0.201027 -0.069883 0.345603 255 -17 3
-0.050511 -0.174667 -0.212572 -15 -255 1
0.196408 -0.084598 -0.104515 255 -13 -5
0.194113 -0.130016 0.030569 255 -15 -3
0.065716 -0.021613 -0.383257 7 249 -51
-0.173291 0.024392 0.179906 -235 97 5
0.152934 -0.170956 -0.117686 1 -255 1
-0.057397 -0.176106 -0.326684 1 -255 9
0.082497 -0.172380 -0.075030 15 -255 1
-0.133537 0.029526 -0.151439 -57 203 -143
-0.026323 0.113379 0.016611 -3 253 -25
0.044698 0.047059 -0.154488 17 215 -135
0.001257 0.040581 -0.170773 17 217 -133
0.071180 0.113780 0.276417 17 255 11
0.195098 -0.055778 0.214783 255 17 7
0.166532 0.027943 0.366754 227 115 11
0.181392 -0.000755 0.035832 237 95 -7
0.152495 -0.006774 -0.274852 45 249 -27
-0.196008 -0.099963 0.131010 -253 -23 5
0.083471 0.040454 0.441184 15 161 197
0.141893 0.081077 0.238746 221 125 9
0.043556 -0.115480 -0.497024 -33 -11 253
-0.013082 -0.082093 0.494617 -1 255 21
0.204980 -0.003774 -0.114957 -75 -7 243
-0.194126 -0.171003 0.105082 -245 -69 -1
-0.100415 -0.013814 -0.348236 1 251 -49
-0.091328 -0.171712 0.012971 -15 -255 1
0.050463 -0.170832 0.099389 -3 -255 5
-0.145734 0.076125 0.026683 -225 119 -9
-0.006006 -0.164434 0.412006 1 -255 7
0.063741 0.089715 0.401495 13 165 193
0.109721 -0.027684 -0.403664 13 245 -73
-0.096195 -0.172505 -0.229480 1 -255 9
0.064445 0.117848 0.192054 11 255 7
0.153874 -0.009672 -0.295888 45 249 -31
0.134165 0.102353 0.142581 207 147 11
-0.196815 -0.097113 0.045743 -255 -11 -3
0.133069 0.101903 0.174129 207 149 9
-0.089528 0.115917 0.209847 -17 255 9
-0.114800 0.069996 -0.093804 -39 219 -127
0.142586 -0.170743 -0.133711 1 -255 1
-0.105916 -0.171125 -0.020736 -15 -255 1
-0.006026 -0.054535 0.475350 -5 -35 253
-0.013506 0.116772 0.258538 -3 255 13
0.165329 -0.170330 -0.377429 1 -21 255
0.012977 0.114371 0.302833 3 255 17
-0.192002 -0.058167 -0.215191 -253 25 11
0.124551 -0.075853 0.276004 1 -227 115
-0.127814 -0.158458 0.442643 41 -243 65
0.138862 -0.023414 -0.379527 29 245 -63
-0.193533 -0.172320 0.082283 -217 -133 -3
-0.019078 0.016197 -0.204810 -15 205 -151
0.192134 -0.148311 -0.025716 255 -11 -5
-0.191036 -0.151839 -0.098281 -179 181 -5
0.195212 -0.163982 -0.005690 255 -5 -5
-0.214072 0.004304 -0.111910 75 -7 243
0.198326 -0.102912 0.252833 -9 -137 215
-0.127006 -0.100274 -0.361527 1 -129 219
-0.038142 -0.169446 0.196220 3 -255 5
0.175293 -0.111437 0.458564 247 -35 57
0.201820 -0.075817 0.265070 237 69 -65
0.181691 -0.011809 0.382982 237 89 25
0.193218 -0.090587 0.218130 255 -13 7
-0.175349 -0.077658 -0.407838 -251 13 -43
-0.176245 -0.170351 -0.059048 1 -255 1
-0.148605 0.015104 -0.166424 -59 201 -145
0.183417 -0.086513 0.432319 133 215 33
0.147339 -0.023632 -0.376038 41 245 -61
0.079144 -0.171711 0.073230 -3 -255 5
-0.131840 -0.085285 -0.352418 1 -129 219
0.170144 -0.170166 -0.000459 1 -255 1
0.132662 -0.029035 -0.401948 29 243 -71
-0.071325 -0.010866 -0.331831 1 249 -51
-0.097003 0.116736 0.121929 -13 255 -3
0.176280 -0.169819 0.172203 1 -255 1
-0.176243 -0.131109 -0.406610 -249 -13 -55
-0.169742 -0.145117 -0.192288 1 -9 -255
0.113810 -0.082274 -0.469082 43 227 -107
0.182901 -0.101294 -0.377133 247 17 -57
0.189766 -0.021197 0.005855 243 75 -7
-0.099974 -0.053147 -0.458228 -43 177 -177
0.101161 0.022488 -0.174948 59 207 -135
0.129533 -0.094305 -0.474634 51 209 -137
-0.018089 -0.162827 -0.469255 -17 -99 -235
-0.170925 0.017403 0.374624 -227 113 17
-0.194960 -0.082024 0.237841 -251 5 -39
0.070537 -0.166045 0.376084 1 -255 7
-0.004309 -0.168605 0.197647 3 -255 5
-0.110960 -0.176969 -0.349114 1 -255 9
0.125105 -0.082085 0.490681 29 31 251
0.080779 -0.172884 -0.065529 15 -255 1
0.173028 0.025274 0.167283 235 97 5
0.000072 -0.172073 -0.008529 3 -255 5
-0.121769 0.006422 0.461801 -45 95 233
-0.078883 0.106655 -0.011470 -19 249 -49
-0.160529 -0.044869 -0.427515 -233 73 -73
-0.162374 -0.019932 -0.343931 -123 219 -43
0.065895 0.118366 0.126525 9 255 -5
-0.154192 0.001023 -0.201321 -53 247 -39
0.117167 0.040031 0.436001 35 161 195
-0.186202 -0.009159 0.244059 -239 91 1
0.056130 0.016325 0.463114 15 159 199
0.035690 -0.045460 -0.460118 19 219 -129
0.149573 0.075865 0.120235 227 117 3
-0.180469 -0.124885 -0.389080 -249 -11 -57
0.039122 -0.036727 0.481020 5 23 255
-0.112489 -0.174879 -0.285996 1 -255 9
0.077187 -0.173111 -0.149119 15 -255 1
0.113391 -0.142662 -0.264135 255 1 1
-0.029946 0.112000 0.332789 -3 255 21
0.112230 0.095842 0.385304 85 179 161
0.135054 0.074491 0.391432 195 153 57
-0.063604 -0.001075 -0.273639 -11 253 -39
-0.145189 -0.170390 -0.005170 1 -255 1
-0.033959 -0.154623 0.452558 -3 -247 59
-0.118170 -0.090751 0.272873 -255 1 1
0.185748 0.006587 -0.123077 -187 -11 -173
0.002204 0.113521 0.325357 3 255 23
-0.077786 0.110965 0.323157 -15 255 17
0.192078 -0.073724 -0.195070 255 -9 -1
-0.097710 0.075308 0.409639 -27 169 189
-0.063964 -0.174178 -0.247895 -15 -255 1
-0.139840 -0.100469 -0.201832 1 -61 -247
0.167301 -0.067116 -0.437052 243 19 -75
0.113895 -0.167924 -0.285106 255 1 1
-0.147901 0.075599 0.186230 -225 121 11
-0.190780 -0.140263 -0.111829 -255 -15 -5
0.066500 0.111875 0.322635 9 255 19
-0.039357 -0.004355 -0.297515 -9 251 -39
-0.055321 -0.040130 -0.446333 -13 237 -93
0.082196 -0.028976 -0.409036 9 245 -69
0.105671 -0.171190 0.016516 15 -255 1
0.141697 0.082162 0.013570 221 127 -13
0.118904 0.100309 0.361423 183 175 29
-0.125785 -0.032576 -0.415130 -33 235 -93
-0.161236 -0.170171 0.083607 1 -255 1
-0.193398 -0.136366 0.003107 -255 -15 -5
0.022606 -0.173665 -0.074535 -3 -255 5
-0.097771 -0.171651 0.043062 -15 -255 1
0.100085 -0.166277 0.357292 1 -255 7
0.082859 0.115949 0.068722 13 255 -13
-0.066165 0.110417 0.003250 -11 251 -47
-0.194485 -0.114851 -0.015713 -253 -23 -5
0.190078 -0.147320 -0.196109 249 -37 41
-0.147097 -0.170695 -0.059457 1 -255 1
0.189970 -0.174663 -0.033130 217 -133 -5
-0.118494 -0.170952 -0.142685 1 -255 1
-0.194037 -0.038119 0.184502 -251 49 5
0.161957 -0.015665 -0.324678 91 235 -39
-0.097588 -0.172059 -0.216095 -15 -255 1
-0.085339 -0.171011 0.132665 3 -255 5
0.183780 -0.006853 0.347362 235 99 13
0.194345 -0.074266 0.227856 255 -13 -7
0.175595 -0.166342 -0.395700 247 -27 -55
0.184619 -0.011173 -0.132819 253 31 -13
0.186653 -0.178204 -0.103038 217 -133 -5
-0.043288 -0.122730 0.495294 -5 205 151
-0.057881 0.055074 -0.137528 -35 217 -127
0.055169 -0.166207 0.350443 1 -255 7
-0.144618 -0.152499 0.411665 1 -33 -253
-0.114523 -0.170625 -0.152607 1 -255 1
-0.132838 0.087478 -0.049421 -147 203 -49
0.145625 0.074198 0.004258 225 119 -11
-0.166917 -0.169908 0.122120 1 -255 1
0.179491 0.007194 0.212042 235 101 5
0.020672 -0.013984 -0.355084 9 249 -51
-0.086840 0.111149 0.015703 -15 253 -27
0.110950 0.018712 -0.176446 59 207 -137
0.163770 -0.068195 0.463448 83 143 195
-0.142212 -0.016152 0.466552 -107 91 213
-0.063606 -0.177227 -0.360336 1 -255 9
-0.175841 -0.099677 -0.424565 -247 5 -65
-0.194151 -0.162961 0.218811 -255 -7 9
-0.112943 -0.168369 0.274907 1 -255 7
0.125338 -0.170502 -0.074360 1 -255 1
-0.148178 0.069497 0.247895 -221 125 11
0.137714 -0.063923 0.340226 1 -255 -13
-0.079478 -0.075607 0.476769 -19 -15 253
-0.147306 -0.128923 0.406021 1 -95 -237
0.179871 -0.170047 -0.381137 245 -15 -69
0.136293 -0.039698 -0.429452 27 233 -97
-0.004319 -0.165561 0.467947 -3 -197 161
0.182554 -0.000159 0.242158 233 103 1
-0.077992 0.103978 0.384374 -13 249 51
-0.113658 -0.079054 -0.329750 -255 1 1
0.097328 0.104004 0.375899 43 247 49
0.190943 -0.149464 -0.072518 255 -11 -5
-0.098102 -0.143871 -0.468723 -45 -211 -135
0.191308 -0.029451 -0.026594 245 73 -7
-0.194114 -0.111694 0.148551 -253 -23 9
-0.044729 -0.174681 -0.124341 3 -255 5
0.134966 -0.122501 -0.469257 81 -77 -229
-0.137935 -0.059861 0.469727 -45 -11 251
-0.195165 -0.113243 0.024537 -253 -23 -3
-0.122056 0.104773 0.296915 -179 181 15
0.134747 -0.054639 -0.296277 1 -255 1
0.063050 0.114828 0.038367 9 253 -27
0.053396 -0.172293 0.033771 -3 -255 5
0.030905 0.111080 0.346962 3 253 29
-0.066909 -0.001361 0.471732 -19 93 237
0.118319 -0.086056 0.368459 255 1 1
0.007775 -0.056362 -0.475011 15 161 -197
-0.045643 -0.061646 -0.468016 -19 91 -237
0.102845 0.046897 -0.137415 53 211 -133
-0.185329 -0.011138 -0.038490 -243 75 -5
-0.125548 0.020577 -0.167410 -57 205 -139
0.053916 -0.171205 0.082455 -3 -255 5
-0.156957 0.058462 0.192925 -229 113 9
0.178750 -0.146263 0.428474 239 -61 63
0.059906 0.103807 -0.030173 17 241 -79
0.040718 -0.120625 0.494219 5 65 247
0.182554 -0.096294 -0.381054 245 61 39
0.006133 0.117244 0.248231 3 255 11
0.083806 -0.176771 -0.386372 1 -253 -31
0.194534 -0.088169 -0.165308 255 -13 -13
0.088484 -0.171954 -0.459674 -53 103 227
-0.148551 -0.145977 0.467870 -89 -149 187
0.182249 0.000083 0.294919 231 109 1
0.155548 0.047696 -0.099592 203 151 -41
-0.047308 0.119043 0.105440 -9 255 -5
-0.189902 -0.027814 -0.065458 -245 71 -7
-0.190384 -0.145015 0.194695 -255 19 9
-0.160760 0.046061 0.250410 -225 119 9
0.023651 0.107199 0.371310 1 249 53
-0.189669 -0.037599 -0.142879 -247 65 -11
0.112044 -0.172675 -0.421621 3 -253 -31
-0.172699 -0.060739 0.452234 -187 1 173
-0.164368 -0.052611 0.460629 -101 3 233
0.128894 -0.170081 0.047139 1 -255 1
-0.197207 -0.064005 0.120100 -255 13 5
0.114049 0.105313 0.001574 37 247 -49
-0.135470 -0.169940 0.107008 1 -255 1
-0.072367 -0.168539 0.246463 3 -255 5
0.101111 0.108514 0.343676 31 251 25
0.081385 -0.165863 0.395207 1 -255 7
-0.171985 0.016103 -0.058599 -231 107 -9
0.002403 0.105851 0.379490 1 249 55
0.055670 0.020404 0.466197 3 173 187
0.023156 0.027748 0.455125 3 159 199
0.048171 -0.163817 0.415655 1 -247 67
-0.167119 0.030197 0.328534 -229 113 9
-0.193352 -0.159563 -0.103221 -255 -5 -5
0.138277 -0.170483 -0.025762 1 -255 1
0.023089 -0.051483 0.480782 5 -11 255
-0.158629 -0.170420 -0.024355 1 -255 1
-0.085617 0.038496 0.443108 -15 161 197
0.113570 -0.146736 -0.272942 255 1 1
0.181763 -0.151546 0.417422 201 -87 129
-0.141453 -0.025511 -0.387167 -31 243 -71
0.196400 -0.069752 0.288065 1 -227 115
-0.029566 0.010387 -0.211366 -17 195 -163
-0.176310 -0.144436 -0.375220 1 -21 255
-0.136251 0.074356 0.386578 -199 153 47
0.152470 0.067803 0.184936 225 121 11
-0.156828 0.049676 0.320115 -223 123 5
0.167868 0.033903 0.073859 231 109 -3
0.072651 -0.173357 -0.113341 15 -255 1
-0.051020 -0.015910 -0.359407 -9 249 -51
0.133245 0.025139 0.445352 93 161 175
0.080744 -0.153498 -0.469544 49 -107 -225
0.075438 -0.173416 -0.133207 15 -255 1
0.001427 0.112771 0.006384 3 253 -25
0.064497 -0.175655 -0.396184 1 -253 -31
0.163212 0.044684 0.209036 227 115 7
0.189128 -0.029206 0.363641 249 53 25
0.175503 -0.057224 -0.385170 247 51 -43
0.169375 -0.168337 -0.191735 1 -9 -255
0.117428 0.089474 -0.055127 43 59 -245
-0.185203 -0.029913 -0.195956 -235 99 -9
0.168768 0.024133 -0.042518 231 109 -9
0.149282 0.057625 0.379729 219 129 15
0.000658 -0.175418 -0.218298 -3 -255 5
0.141786 0.072465 0.336130 215 135 11
0.016525 -0.036984 -0.443937 15 239 -91
0.067318 0.118029 0.178482 11 255 7
0.013661 -0.168727 0.198644 -3 -255 5
0.190944 -0.173087 -0.056442 -217 133 5
-0.102804 -0.171177 -0.049750 -15 -255 1
-0.075040 0.116881 0.080785 -13 255 -13
-0.004992 -0.158618 0.439129 -3 -247 59
-0.189244 -0.040655 -0.213734 -253 35 1
0.174110 0.017076 0.301184 229 111 7
-0.027173 -0.176146 -0.240655 -15 -255 1
0.197630 -0.088207 -0.043988 255 -11 -5
0.045136 0.110611 -0.000689 11 251 -47
0.113020 -0.170472 0.071530 15 -255 1
-0.093926 -0.005467 -0.292005 -7 253 -31
-0.148930 -0.043196 -0.432066 -47 221 -121
-0.143027 0.076633 -0.019516 -221 127 -13
0.136423 0.036972 -0.140075 47 207 -141
-0.098029 0.010316 -0.204658 -31 243 71
0.081931 0.117245 0.183956 17 255 7
0.059206 -0.174003 -0.106954 15 -255 1
-0.154877 -0.061233 0.464034 -99 -1 235
-0.054901 -0.168265 0.245944 3 -255 5
0.139041 0.049043 0.419295 89 165 175
-0.031412 -0.166523 0.324133 3 -255 5
0.083257 -0.171377 0.097464 -3 -255 5
0.073404 -0.177281 -0.364018 1 -255 9
0.041261 0.072811 -0.110438 15 223 -121
0.073270 0.117245 0.195215 17 255 7
-0.010472 0.113863 0.311134 -3 255 19
0.034577 -0.014062 -0.354028 9 249 -51
0.089318 0.117161 0.147241 15 255 3
0.083668 -0.125704 0.494280 23 -45 251
0.188030 -0.015758 -0.003254 243 75 -7
0.192000 -0.032737 0.248799 253 37 1
-0.100187 -0.168854 0.256110 3 -255 5
0.061835 0.118301 0.102439 9 255 -5
-0.040962 -0.003310 -0.293467 -9 251 -39
0.023863 -0.177737 -0.354357 1 -255 9
-0.064229 0.106444 0.371109 -7 249 51
0.041796 -0.062990 -0.469115 19 91 -237
-0.101968 -0.170828 0.176756 3 -255 5
0.020135 0.115017 0.031110 3 253 -25
-0.087336 -0.165881 0.368777 1 -255 7
-0.095059 0.107807 0.358772 -13 253 23
0.190473 -0.024788 0.225849 249 53 -3
0.076183 -0.155047 -0.470612 45 -127 -217
-0.083949 -0.167665 0.322098 1 -255 7
-0.190299 -0.134496 0.209741 -255 -11 3
-0.005778 -0.166538 0.321058 3 -255 5
0.007832 -0.168095 0.240939 -3 -255 5
0.126798 -0.054856 -0.291840 1 -255 1
0.205255 0.012703 -0.121644 75 55 -237
0.113917 -0.030174 -0.410651 13 245 -73
0.164787 0.023569 0.412583 227 111 29
0.143848 0.084821 0.167652 225 119 7
-0.116613 -0.169899 0.239981 1 -255 7
-0.099024 -0.105793 0.496756 -43 1 251
0.194392 -0.115641 0.129422 255 -23 5
0.083427 -0.171600 0.102578 -3 -255 5
-0.084092 -0.167017 0.327727 1 -255 7
0.144738 0.023172 -0.156008 57 205 -141
0.100926 0.109480 0.328551 29 253 17
0.134470 -0.169691 0.177466 1 -255 1
0.113682 0.096918 -0.033064 39 239 -81
-0.022880 -0.110128 0.492702 -3 61 247
-0.148203 -0.170338 -0.009935 1 -255 1
-0.135881 -0.118650 0.243116 1 -113 229
0.056445 0.000998 -0.255353 9 253 -25
0.118249 -0.122706 0.309384 255 1 1
-0.196147 -0.153466 0.085196 -253 25 1
0.146422 0.074798 0.031667 225 117 -9
-0.180383 0.001233 0.036678 -237 95 -7
-0.108366 -0.017193 0.474288 -45 87 235
0.089620 0.102180 -0.027494 25 241 -81
0.101380 -0.171331 -0.122326 15 -255 1
0.026595 -0.043852 -0.459328 19 219 -129
-0.121773 0.111415 0.209999 -123 223 11
-0.150431 -0.088163 -0.354359 1 -129 219
-0.190574 -0.047577 -0.166061 -253 37 -11
-0.045276 0.083015 0.407752 -13 165 193
-0.172695 0.004381 -0.154374 -201 143 -67
0.142177 -0.152919 0.411657 1 -33 -253
-0.056770 -0.165543 0.372625 1 -255 7
-0.140766 0.076064 -0.064770 -175 177 -53
0.152483 -0.170849 -0.156695 1 -255 1
-0.194967 -0.166578 0.169299 -245 -71 5
0.118073 -0.156722 0.350726 255 1 1
0.169288 0.034419 0.162273 229 111 5
-0.195253 -0.156845 -0.001738 -255 19 -5
0.163483 -0.159788 -0.429346 209 -93 -113
-0.176359 0.004340 -0.077246 -237 91 -5
0.057348 -0.177260 -0.385095 1 -253 -31
-0.117985 -0.153328 0.340552 -255 1 1
-0.051104 -0.151935 0.465930 -3 -247 59
-0.150449 -0.164051 0.418001 1 -255 17
0.188991 -0.063420 -0.323794 191 147 -83
0.147594 -0.169864 0.104297 1 -255 1
0.192206 -0.131228 -0.069326 255 -15 -5
0.199963 -0.080440 0.374956 255 1 21
-0.164998 -0.170466 -0.052012 1 -255 1
0.192851 -0.027994 0.052470 249 53 -5
0.075519 0.117855 0.116963 15 255 -5
-0.033897 0.007440 -0.214830 -17 195 -163
0.056131 -0.167307 0.319309 -3 -255 5
-0.157089 -0.038502 -0.416514 -87 223 -89
-0.135609 -0.157133 0.455144 41 -243 65
0.065180 -0.174032 -0.170260 15 -255 1
0.002899 -0.171395 0.026528 -3 -255 5
0.071901 0.115650 0.250760 17 255 11
-0.052970 -0.176174 -0.397513 1 -253 -31
-0.115999 -0.054714 -0.277426 1 -255 1
-0.195514 -0.082710 -0.126946 -191 169 -7
0.088054 -0.170840 -0.437411 3 -253 -31
-0.036661 -0.174769 -0.152957 3 -255 5
0.146205 -0.133500 0.477952 97 -113 207
0.178754 -0.064779 0.350670 1 -255 -13
0.075898 -0.011910 -0.337129 -1 249 -51
0.122248 -0.009574 -0.319484 15 251 -41
-0.154623 0.066655 0.122979 -227 117 3
0.183081 -0.038192 -0.293310 241 75 -35
-0.060229 -0.168569 0.239343 3 -255 5
-0.180453 0.003989 0.093797 -237 95 -3
0.128609 -0.040389 -0.433640 27 233 -97
0.118445 -0.148329 0.284917 255 1 1
0.061837 0.115333 0.253983 11 255 13
0.116639 -0.166412 -0.452678 73 -131 -205
-0.104952 0.055518 -0.122335 -47 215 -129
-0.120460 0.073295 -0.086212 -39 219 -127
-0.163516 -0.176118 -0.389796 1 -253 -33
0.078115 -0.172803 -0.149221 15 -255 1
0.110394 -0.168971 0.267548 1 -255 7
-0.014400 -0.166714 0.336724 3 -255 5
-0.047184 -0.168041 0.267986 3 -255 5
0.110138 -0.030471 -0.415125 13 245 -73
0.188185 -0.015781 0.215359 243 81 3
-0.189489 -0.169577 0.211955 1 -255 1
-0.132118 0.084401 0.358922 -207 149 17
-0.015268 0.119531 0.177713 -3 255 7
0.013825 -0.131654 0.497111 5 -101 235
0.186191 -0.170778 -0.042836 1 -255 1
-0.073131 -0.008361 0.473927 -19 87 239
0.194502 -0.067976 0.225338 255 -13 -7
0.188457 -0.042660 -0.219226 245 69 -5
0.169499 -0.080572 -0.433874 235 61 -77
0.124140 -0.170608 -0.108408 1 -255 1
-0.188198 -0.018685 0.329972 -243 77 9
0.126106 -0.144913 -0.375067 1 -21 255
-0.164940 -0.103480 -0.453704 -187 -7 -173
-0.034156 -0.169218 0.190728 3 -255 5
-0.027567 -0.167135 0.296543 3 -255 5
0.075356 0.109956 0.337873 13 255 19
0.066241 0.085015 0.404406 13 165 193
-0.162900 -0.024837 -0.362193 -121 217 -55
0.006157 -0.168976 0.174839 -3 -255 5
-0.000230 0.119061 0.210276 -3 255 9
-0.195118 -0.073966 -0.315683 -195 -157 49
0.090614 -0.170008 0.196635 -3 -255 5
0.187058 -0.012317 0.275698 245 73 1
0.185176 -0.004370 0.168623 243 81 3
-0.023226 -0.116788 -0.499334 15 -11 255
0.179851 -0.018477 0.418391 247 49 39
-0.195513 -0.075781 0.176305 -255 -13 11
-0.048327 0.118491 0.201007 -11 255 7
0.170487 -0.131161 -0.426972 237 -21 -91
-0.195617 -0.092953 0.152675 -253 -23 9
0.161477 -0.000503 -0.201066 53 247 -39
-0.122565 0.113313 0.142398 -113 229 7
-0.159733 -0.054605 -0.288050 1 -255 1
0.142981 0.083856 0.189538 225 121 11
0.041961 0.024896 0.456549 3 159 199
0.164064 -0.057854 -0.436387 185 109 -139
0.191578 -0.026600 0.006725 243 75 -7
0.106552 -0.170585 0.130080 15 -255 1
0.171036 -0.138435 -0.423997 221 -39 -121
-0.101794 0.104689 -0.011540 -37 247 -49
-0.164643 -0.160664 0.445635 -173 -105 153
0.120886 -0.039567 -0.434035 27 233 -97
0.163978 -0.170247 0.108576 1 -255 1
0.192166 -0.054841 0.380242 249 47 35
0.096763 -0.169571 0.229482 -3 -255 5
-0.100319 -0.171880 -0.171213 -15 -255 1
0.192158 -0.144381 -0.043848 255 -15 -5
-0.020297 0.073720 -0.111116 -13 225 -119
-0.164195 0.040329 0.046638 -229 109 -7
0.008604 0.074881 -0.109941 13 225 -119
-0.146371 0.082653 0.126698 -225 119 5
0.044743 -0.172983 -0.033742 -3 -255 5
0.092544 -0.046412 0.477762 19 -11 255
-0.147355 0.079053 0.146993 -225 119 9
-0.037659 0.098564 0.394819 -3 175 185
0.197775 -0.082414 -0.049354 255 -11 -5
0.118061 -0.132367 0.329705 255 1 1
-0.191001 -0.147893 -0.070369 -255 -11 -5
-0.032294 -0.169248 0.170570 3 -255 5
-0.181962 -0.054753 -0.267358 1 -255 1
-0.127301 0.090189 0.369385 -205 149 19
0.014131 0.004579 -0.240783 11 251 -43
-0.073341 -0.165154 0.398362 1 -255 7
0.097472 -0.173031 -0.235732 1 -255 9
-0.185038 -0.007541 0.001171 -245 73 -7
-0.000516 -0.176802 -0.289763 3 -255 5
-0.017307 -0.161672 0.425951 -3 -247 59
-0.046836 -0.175048 -0.253542 -15 -255 1
0.055518 0.000653 -0.257773 9 253 -25
0.178187 -0.064420 0.352690 1 -207 -149
0.064207 0.114232 0.036098 9 253 -27
0.042694 0.067267 0.421531 3 167 193
-0.177459 -0.079638 0.457582 -237 81 51
-0.100769 0.114816 0.212335 -29 253 9
-0.178377 -0.169816 0.112670 1 -255 1
0.171415 -0.169834 0.115815 1 -255 1
0.047568 -0.158558 0.476172 3 -197 161
-0.090264 -0.093024 -0.486100 -49 7 -251
0.113893 0.112539 0.053277 27 253 -27
-0.188222 -0.011236 0.087017 -243 77 -3
0.192297 -0.044575 0.354659 249 55 21
-0.151920 0.060123 -0.021161 -225 119 -9
0.186129 -0.169466 0.216654 1 -255 1
-0.094991 0.004393 -0.210369 77 -107 219
-0.063478 0.051768 -0.141875 -39 215 -131
0.055671 -0.136837 -0.483131 45 1 -251
-0.048939 -0.157636 0.477107 -3 -197 161
-0.176745 -0.170067 0.037930 1 -255 1
0.180135 -0.020292 0.412306 247 49 39
0.150321 0.058270 -0.087726 205 147 -39
-0.193292 -0.047795 -0.076416 -251 39 -7
0.068027 -0.176872 -0.384737 1 -253 -31
0.193289 -0.168850 0.208129 245 -71 15
-0.113812 -0.166604 -0.287419 -255 1 1
-0.032386 -0.173005 -0.039965 3 -255 5
-0.168333 0.034120 0.201002 -227 115 7
-0.050282 0.069012 -0.115283 -31 223 -119
0.193795 -0.111568 -0.063017 253 -23 -5
-0.069431 -0.162076 0.422276 1 -247 67
0.194858 -0.170333 0.090434 245 -69 -1
-0.082875 0.103594 -0.024708 -21 249 -51
-0.014194 0.068570 0.420663 -3 167 193
-0.026902 -0.001770 0.473202 -5 93 237
-0.145924 0.072824 0.001420 -225 119 -11
0.059093 0.101201 0.391563 15 125 221
-0.192174 -0.052249 -0.241055 -233 101 21
0.153588 -0.170081 0.057007 1 -255 1
-0.111527 -0.173706 -0.271580 1 -255 9
-0.134078 0.083086 0.345265 -207 147 15
-0.139247 0.096868 0.082405 -251 -45 3
0.189962 -0.139284 -0.145263 255 -15 -7
-0.157483 -0.073651 -0.338358 1 -225 119
-0.143323 -0.170214 0.010589 1 -255 1
0.000723 0.119599 0.101246 3 255 -5
0.188710 -0.018336 0.241152 247 65 3
-0.195499 -0.072535 0.244803 -251 33 -31
0.195335 -0.165031 0.028316 243 -77 -5
0.142883 -0.124041 0.482422 103 -63 225
-0.092352 -0.072649 -0.469940 -81 105 -219
-0.189043 -0.067781 0.402142 -247 35 55
0.077612 -0.043029 -0.448679 29 211 -141
-0.194493 -0.047959 0.199243 -255 17 7
0.176092 -0.032434 -0.334617 247 53 -33
0.031532 -0.164736 0.404762 1 -255 7
0.181284 0.001878 0.095423 237 95 -3
-0.185049 -0.073090 -0.350891 -239 71 -55
-0.050288 0.107708 0.370447 -7 249 51
0.185944 -0.004353 0.112386 237 95 1
0.000261 0.118645 0.221096 3 255 9
-0.181618 -0.085486 0.437116 -249 9 57
-0.154877 -0.061233 0.464034 -99 -1 235
0.094218 -0.081578 -0.475056 27 207 -147
-0.164687 0.025759 0.395904 -227 113 25
0.194514 -0.157001 0.237330 253 -29 1
0.019909 -0.169574 0.164351 -3 -255 5
-0.063342 -0.061084 -0.465620 -43 89 -235
0.136649 -0.070700 -0.457457 101 61 -227
0.154956 -0.062591 0.303214 1 -227 115
0.174399 -0.001718 0.415944 239 77 41
0.113324 -0.150500 -0.288007 255 1 1
0.138837 -0.170209 0.011959 1 -255 1
-0.188820 -0.140395 -0.179750 -255 -13 11
-0.137028 -0.129263 -0.464945 -117 -115 -195
-0.178793 0.000867 -0.021924 -237 95 -5
0.200240 -0.065173 0.277555 235 91 -35
0.079018 0.112200 0.308285 17 255 13
-0.056250 -0.174093 -0.084059 3 -255 5
0.156381 0.057529 0.218175 227 115 7
-0.050426 -0.009966 -0.327797 -11 249 -51
0.027918 0.074962 -0.107737 13 225 -119
0.191835 -0.106702 -0.160577 253 -25 -9
-0.017448 -0.176968 -0.329013 -15 -255 1
0.076291 -0.172004 0.064112 -3 -255 5
0.163864 -0.170085 0.202557 1 -255 1
-0.131023 -0.169699 0.151679 1 -255 1
0.047053 -0.175414 -0.297533 15 -255 1
-0.186611 -0.177838 -0.115879 -217 -133 -5
-0.059129 -0.171811 0.055747 3 -255 5
0.163488 -0.055082 -0.258238 1 -255 1
0.190717 -0.027732 -0.026096 245 73 -7
0.191290 -0.032430 -0.062578 245 71 -7
-0.161970 0.040519 -0.013134 -229 111 -9
