ply
format ascii 1.0
element vertex 1206
property float x
property float y
property float z
property uchar red
property uchar green
property uchar blue
end_header
-0.139551 -0.051334 0.471008 -127 -41 217
-0.130866 -0.122770 0.183911 -1 -255 -1
0.150147 -0.008360 -0.416738 17 237 -93
-0.069170 0.016669 -0.375121 -17 245 -69
-0.146141 0.087255 0.186749 -221 125 9
0.145458 0.006492 -0.377207 1 243 -77
-0.092734 0.128559 0.179613 -51 247 33
0.109714 0.104445 0.272244 91 229 67
-0.058957 0.116089 -0.038400 -17 217 -133
-0.036516 0.038295 -0.240059 51 -249 -17
-0.188475 -0.090283 0.383176 -247 -59 13
-0.110300 0.079698 0.430742 217 -125 -51
-0.097582 0.007406 -0.400223 -25 243 -73
0.029646 -0.122811 -0.226280 -1 -255 -1
-0.051296 -0.127243 -0.450503 -1 -255 -1
0.040372 -0.006352 0.491216 9 235 101
0.151569 -0.083983 0.213289 13 -45 251
-0.110743 -0.056704 0.347288 -255 -1 1
-0.151055 0.070519 0.242377 -229 105 41
-0.120058 0.110764 0.238168 -137 207 59
0.106554 -0.006752 -0.432555 27 227 -113
-0.131519 0.116571 0.134703 -189 171 11
0.071054 0.035202 -0.219540 -87 87 223
-0.037207 0.036440 -0.260396 -35 251 -33
0.155456 -0.122828 0.189410 -1 -255 -1
0.013280 -0.116332 0.309318 -1 -255 17
0.078822 -0.122793 -0.234296 -1 -255 -1
0.196302 -0.047156 0.371440 253 -23 15
-0.180854 -0.123206 0.144123 -1 -255 -1
-0.035622 -0.122820 -0.133430 -1 -255 -1
0.047293 -0.127398 -0.461261 1 -255 1
0.151019 -0.090829 0.443150 247 -65 1
-0.111120 -0.087725 0.337756 -255 -1 1
0.171959 -0.017048 -0.362426 -47 -215 127
0.031432 0.025292 -0.334547 -89 239 7
-0.110462 -0.020987 -0.381219 -255 -13 -9
0.114317 -0.010154 0.283656 -1 -255 -5
-0.195740 -0.106802 -0.092087 -253 -29 -9
0.191467 -0.008679 0.170423 255 17 9
0.093867 -0.122924 -0.020098 -1 -255 -1
0.112624 0.105409 0.472032 -19 -227 115
-0.035645 -0.121673 -0.367549 -1 -255 -1
0.159290 -0.123227 -0.098522 -1 -255 -1
-0.008742 0.132148 0.146798 -3 255 21
0.005152 0.128983 0.181337 1 253 31
0.189552 0.010732 0.038337 243 75 1
0.183630 -0.072111 0.403206 205 111 103
-0.193438 -0.010250 -0.332359 1 -255 21
0.171673 0.100457 0.469273 41 243 -69
-0.093788 -0.068942 -0.482208 -103 -43 -229
0.055329 -0.123228 -0.155582 -1 -255 -1
0.095293 0.074835 -0.116002 43 225 -113
0.185956 -0.050210 -0.234540 -27 -119 -225
-0.110939 -0.035087 0.301747 -255 1 -1
-0.159239 -0.122924 0.011534 -1 -255 -1
-0.139731 0.104644 0.120203 -227 117 13
0.045228 -0.121698 -0.367092 -1 -255 -1
-0.109282 -0.061655 -0.366764 255 13 9
0.012118 -0.122900 0.034516 -1 -255 -1
-0.172497 0.044371 0.307484 -215 137 9
0.086601 -0.008660 -0.441798 29 227 -111
-0.113179 0.007264 -0.394781 -25 243 -73
-0.042745 0.105378 0.455128 -1 253 -33
0.188630 -0.102857 -0.221013 5 -15 -255
-0.002560 -0.066346 -0.489377 -1 -39 -253
0.183617 0.006642 -0.178738 225 119 -15
-0.023088 -0.071226 -0.489073 3 37 253
-0.046388 -0.122278 0.219532 -1 -255 17
-0.029237 -0.040439 -0.495391 -13 183 -177
-0.176314 -0.090082 -0.420545 -157 103 -171
-0.137594 -0.013340 -0.431543 -41 213 -133
-0.078097 -0.123272 -0.181956 -1 -255 -1
-0.130595 0.035174 -0.205497 -31 253 -9
0.214172 0.061846 -0.070188 233 87 -57
-0.182320 -0.038827 0.225011 49 -143 205
0.006076 -0.122563 0.218865 -1 -255 17
0.158057 -0.122836 -0.163749 -1 -255 -1
-0.134185 -0.108806 0.442997 -97 -137 191
0.014405 0.003811 -0.422746 -1 239 -91
-0.007022 -0.122069 -0.312119 -1 -255 -1
0.152720 -0.027604 0.358936 -15 -131 -217
0.192092 -0.025050 0.170819 255 5 9
-0.034504 -0.123116 -0.187143 -1 -255 -1
-0.116263 -0.106801 0.453895 -145 -127 167
-0.144599 0.106660 0.475867 -23 241 -81
0.060536 -0.122484 -0.383233 -1 -255 -1
0.187727 -0.118095 0.138160 209 -145 13
-0.178697 -0.085489 -0.419154 197 25 159
-0.063758 0.067914 -0.138734 -21 227 -113
-0.187064 -0.011101 0.367518 -209 111 95
-0.020134 -0.116868 0.295373 -1 -255 17
-0.106723 0.060846 0.387855 -17 255 9
0.005472 -0.123023 -0.024439 -1 -255 -1
0.131144 -0.027905 0.359216 17 -83 -241
-0.148719 0.100190 0.468137 17 -225 119
-0.153469 0.053985 0.362409 -73 245 1
-0.143008 -0.098714 0.444236 -65 -247 1
0.091744 0.035286 -0.243063 13 253 -27
-0.192880 -0.090312 -0.121704 -241 87 -5
0.118743 -0.123092 -0.108570 -1 -255 -1
0.193506 -0.016037 0.107213 253 23 5
-0.144628 -0.122855 -0.175072 -1 -255 -1
-0.177597 0.036093 0.304985 -215 137 9
-0.056302 -0.122123 0.225382 -1 -255 17
0.183530 0.029174 0.210471 217 135 1
0.061498 0.129068 0.015289 11 253 -29
-0.048944 0.128236 0.185426 -11 253 29
-0.146320 0.075083 0.253214 -211 137 41
0.185761 -0.092240 0.383402 1 -39 -253
-0.180087 0.030515 0.314460 -233 103 15
-0.181188 -0.123002 -0.082772 -1 -255 -1
-0.033189 0.108450 0.478757 -3 -225 119
0.043078 0.084244 0.340615 11 235 99
0.177806 0.016335 0.376500 239 59 63
-0.161655 0.041713 -0.124197 -217 129 -29
-0.197581 -0.023242 0.244486 61 -189 159
-0.142103 -0.010717 0.320282 1 -255 -5
0.052023 -0.119963 -0.441753 1 1 255
-0.194923 -0.067902 0.004750 -253 -25 3
0.009096 -0.122569 -0.276532 -1 -255 -1
-0.021015 -0.024707 0.489027 1 43 251
-0.089665 0.132774 0.086372 35 253 -5
-0.088746 0.106418 0.276902 -29 235 93
0.109497 -0.078306 -0.316506 255 -13 -9
0.177613 -0.017388 0.340239 -37 -235 -93
-0.029161 -0.122933 -0.207731 -1 -255 -1
-0.098310 -0.123071 0.047846 -1 -255 -1
-0.192929 -0.112030 0.117050 -211 -145 3
-0.136836 0.106162 0.174816 -237 95 13
-0.149190 0.027905 -0.269220 -31 253 -23
0.102769 0.071907 -0.119310 43 225 -113
0.191301 -0.016148 0.179523 255 17 9
-0.078960 0.067939 -0.135882 -45 225 -113
-0.093389 0.132526 0.069081 -43 251 -5
0.024314 -0.122576 -0.262386 -1 -255 -1
0.128728 -0.122835 0.134063 -1 -255 -1
-0.098023 0.017059 -0.368965 -17 247 -59
0.127573 -0.125776 -0.455222 107 1 -231
-0.167669 -0.122756 -0.024597 -1 -255 -1
-0.009054 -0.122828 0.198402 -1 -255 -1
-0.153840 -0.122881 -0.023225 -1 -255 -1
-0.193415 -0.082207 -0.044218 -255 -23 -1
0.193839 -0.019657 -0.231354 217 93 95
-0.080080 -0.122816 -0.054056 -1 -255 -1
-0.117307 0.001585 0.457567 -77 141 197
-0.153378 -0.002380 -0.400545 -15 239 -89
-0.158174 -0.009603 0.456938 -95 221 85
-0.032228 -0.121997 -0.333016 -1 -255 -1
-0.158425 0.067335 0.133321 -231 107 5
0.035695 -0.122996 -0.066065 -1 -255 -1
0.194439 -0.076088 -0.012065 253 -25 3
-0.184848 -0.010661 -0.294351 -7 -255 -17
0.091932 -0.123151 0.079321 -1 -255 -1
0.192485 0.008647 0.021506 105 229 -43
-0.186031 -0.084237 -0.412670 -199 -27 -157
-0.109453 -0.107864 -0.277470 -255 -13 -9
-0.164211 0.002875 -0.388008 -55 221 -115
0.091376 0.122428 -0.017839 27 235 -93
0.109920 -0.106629 -0.267585 255 -13 -9
-0.194699 -0.049382 0.071289 -255 -11 3
-0.171362 0.044707 0.319772 -215 137 9
0.039904 0.104824 -0.063859 7 233 -105
-0.157435 -0.052132 0.369408 -19 -83 -241
0.077154 0.062122 0.402035 13 255 13
0.154707 0.095450 0.428061 41 251 13
-0.176725 -0.032987 0.415600 -245 17 69
-0.091166 -0.114921 0.332966 -1 -255 17
0.170378 -0.001495 0.418734 241 61 61
0.002754 -0.014830 -0.462878 7 211 -143
-0.057312 0.114415 0.259607 -9 247 59
-0.068357 0.108018 0.469456 3 247 -63
-0.055883 -0.122799 -0.144225 -1 -255 -1
0.055195 0.099524 0.457188 3 -243 81
0.067720 -0.122973 -0.194646 -1 -255 -1
-0.193685 -0.019557 -0.128576 -253 25 -5
0.073276 -0.100425 0.472401 63 87 231
0.056339 0.081597 0.344623 35 233 95
0.163988 -0.111996 0.208224 1 -1 255
0.045616 -0.120743 0.244553 -1 -255 17
0.126710 0.075889 -0.099094 65 221 -109
-0.198959 -0.010922 0.290486 -7 -255 5
0.109555 -0.071118 -0.339993 255 -13 -9
0.193860 -0.024313 0.106235 255 3 7
-0.110501 -0.112915 -0.225518 -255 -1 -1
-0.005947 -0.110797 0.397838 -1 -255 3
-0.061662 -0.123171 -0.159647 -1 -255 -1
-0.007618 -0.126561 -0.484908 -1 -255 -1
-0.187153 -0.023761 0.240229 61 -189 159
-0.181173 -0.051961 0.404532 -245 -1 71
0.112820 -0.003485 -0.421598 85 215 -107
0.134964 -0.033529 -0.456295 31 233 -99
-0.197664 -0.013724 -0.343300 33 -239 81
0.054138 -0.063913 -0.487365 43 -39 -249
-0.056905 0.035561 -0.216199 -23 231 -107
-0.055851 -0.121624 -0.384544 -1 -255 -1
0.042137 -0.074480 -0.487224 17 -37 -251
-0.176392 0.015926 -0.201512 -199 159 -15
-0.161808 0.057541 0.194220 -235 97 13
0.170155 -0.123233 0.004819 -1 -255 -1
0.059790 -0.122301 -0.376951 -1 -255 -1
0.165522 0.042311 -0.111557 221 117 -49
-0.041182 -0.123075 0.100147 -1 -255 -1
0.055679 -0.122777 -0.180178 -1 -255 -1
0.085667 -0.122750 0.172234 -1 -255 -1
0.098892 0.112002 0.260562 29 247 59
0.095181 -0.123146 0.031854 -1 -255 -1
-0.147546 -0.058448 -0.454779 -151 -23 -205
-0.030308 0.132674 0.051077 -5 255 -11
0.195579 -0.049683 -0.090482 255 -9 -1
0.193154 -0.045746 0.150778 255 -9 9
0.042193 -0.127752 -0.472658 -1 255 -1
0.053763 -0.102021 -0.441509 -1 -1 -255
-0.186582 -0.074658 -0.412060 -175 15 -183
-0.200727 0.046420 -0.066130 77 1 243
0.068427 -0.120639 0.248433 -1 -255 17
0.125814 -0.079363 0.461781 231 -101 35
0.140822 -0.121705 -0.399423 1 19 255
0.076877 -0.117966 0.288554 -1 -255 17
-0.005476 -0.122872 -0.043533 -1 -255 -1
-0.065613 -0.016815 -0.459598 -25 209 -143
-0.194532 -0.019848 -0.050262 -253 27 -1
-0.114227 -0.122938 0.189747 -1 -255 -1
0.045182 -0.122928 0.049725 -1 -255 -1
-0.136942 -0.030837 -0.443134 -19 -255 7
-0.114434 -0.014309 -0.334169 -17 -255 -3
0.193179 -0.078904 0.071645 255 -21 5
0.152375 0.080610 0.130498 225 121 5
-0.136180 -0.123017 -0.014659 -1 -255 -1
-0.012178 0.000116 0.477696 -1 235 101
0.116762 -0.091105 0.466856 89 -147 189
-0.164286 -0.117694 -0.431481 -161 -49 -191
-0.015378 -0.122149 -0.345610 -1 -255 -1
-0.035226 0.090116 0.326243 -9 235 99
0.193315 -0.017812 0.114028 253 23 5
-0.107542 -0.111648 -0.325183 -255 -13 -9
0.157134 0.054717 -0.055981 239 89 -17
-0.136175 0.105961 0.178851 -237 95 13
-0.082237 0.093352 -0.084020 -41 225 -113
0.031737 0.045234 -0.189578 -7 235 -99
0.167794 0.021764 -0.232850 169 189 -25
-0.068673 0.078069 -0.117152 -13 229 -113
0.099658 -0.122906 -0.009958 -1 -255 -1
0.007407 0.097971 0.308589 5 241 85
-0.018550 -0.122829 -0.201991 -1 -255 -1
-0.176863 -0.032196 0.415903 -245 17 69
-0.190825 -0.090780 -0.404560 -247 -35 -49
0.102812 -0.122858 -0.105104 -1 -255 -1
0.046434 -0.122581 -0.291001 -1 -255 -1
0.118633 0.018763 -0.353100 21 249 -53
0.069757 0.035657 -0.257569 15 253 -17
0.019494 -0.123160 0.000207 -1 -255 -1
0.154377 0.061538 -0.062233 239 89 -17
0.113195 -0.122819 0.180677 -1 -255 -1
-0.035985 -0.120043 0.399277 1 -255 -9
-0.089510 -0.122501 -0.336205 -1 -255 -1
-0.032080 0.062088 0.423165 -5 255 13
0.212592 0.064192 -0.070141 155 197 -47
-0.067134 0.082333 0.338382 -19 231 107
0.115851 0.115629 -0.022457 95 225 -75
0.121750 -0.002371 -0.407839 159 161 -117
-0.169130 -0.122758 -0.050661 -1 -255 -1
-0.141353 0.099820 0.060681 -227 115 -5
-0.110546 -0.086128 0.376930 -255 -1 1
-0.191893 -0.031386 0.188898 -255 7 9
-0.090909 -0.122900 -0.213094 -1 -255 -1
-0.089518 -0.123183 0.106084 -1 -255 -1
0.110929 -0.053262 0.269755 255 1 -1
-0.060515 -0.110690 0.387309 -1 -255 3
-0.096437 -0.123231 -0.201768 -1 -255 -1
-0.180941 -0.122759 0.069585 -1 -255 -1
0.135531 -0.100705 0.211022 13 -45 251
0.029623 -0.122877 -0.015710 -1 -255 -1
-0.042965 -0.111448 0.383941 -1 -255 17
0.018165 0.130987 0.021621 3 253 -29
-0.147609 -0.122717 -0.167803 -1 -255 -1
0.197420 -0.096226 -0.031157 221 125 -3
-0.164085 0.034966 -0.137135 -213 135 -35
0.155194 -0.085854 -0.226200 17 -51 -249
0.162800 0.057523 0.107191 233 105 1
-0.156878 -0.010832 0.316577 1 -255 -5
0.097160 0.022311 -0.344811 19 247 -57
0.107302 -0.085973 -0.370563 255 -13 -9
-0.080686 -0.091064 0.464967 -49 -141 207
0.188593 0.012764 0.118389 243 75 1
0.101357 -0.110633 0.401164 51 -247 33
-0.083190 -0.122951 0.110333 -1 -255 -1
0.131047 0.023770 -0.319182 25 251 -37
0.194730 -0.006375 -0.368484 209 125 -75
0.183337 0.019866 -0.064481 209 145 -9
0.040550 -0.122259 -0.303385 -1 -255 -1
-0.110801 -0.112918 0.223110 -255 -1 1
0.177574 0.030065 0.344411 235 95 33
0.114304 0.102425 0.429363 37 253 7
0.154650 -0.081704 -0.431156 -155 37 199
-0.110510 -0.085814 -0.233476 -255 -1 -1
0.003667 0.120229 -0.030308 1 239 -87
-0.171127 0.024385 0.390728 -233 81 61
-0.147571 -0.123054 0.031808 -1 -255 -1
0.004243 -0.123098 -0.090032 -1 -255 -1
-0.119389 0.116962 0.211410 -79 239 43
0.177140 0.096289 0.471661 -49 -115 223
0.180930 -0.122974 0.054982 -1 -255 -1
0.032565 0.051501 -0.176844 5 229 -113
-0.012530 0.055529 -0.170212 -5 227 -117
-0.183192 0.026250 0.240026 -243 79 -1
-0.016836 -0.127653 -0.447386 -1 -255 -1
0.110787 -0.024484 0.247779 255 1 -1
0.158236 -0.122891 -0.017220 -1 -255 -1
0.116627 0.052796 -0.150275 65 221 -111
-0.110755 -0.105366 0.269850 -255 -1 1
0.040159 0.032043 0.468354 21 39 251
-0.030707 0.121708 -0.026210 -3 241 -85
-0.110707 -0.052360 0.231672 -255 1 -1
-0.105478 0.113662 0.247892 -31 247 59
-0.105710 0.120405 -0.018545 -43 237 -87
-0.193225 -0.092666 -0.150705 -239 87 -5
0.053555 0.034353 -0.250167 51 249 -23
0.187318 -0.002852 -0.199015 221 127 -13
0.180504 0.027745 -0.000337 209 145 -9
0.032715 -0.008840 0.497448 13 191 169
-0.148706 -0.047346 -0.456168 -151 -27 -203
0.153657 0.072565 0.194253 199 151 -47
0.001834 -0.122882 0.113036 -1 -255 -1
0.110782 -0.021255 0.319254 255 1 -1
0.186378 0.085699 0.437093 225 117 13
-0.142886 0.091752 0.209244 -201 151 -49
-0.061507 0.009157 -0.404958 19 -237 93
0.044246 0.133059 0.062372 11 255 -11
0.022074 -0.003972 -0.440081 1 231 -107
0.136864 0.079985 -0.085443 73 221 -103
-0.165416 0.026267 -0.223476 -131 217 -23
-0.042516 -0.126734 -0.470863 -1 -255 -1
-0.119532 -0.123152 0.021988 -1 -255 -1
-0.182856 -0.122514 -0.399131 1 -19 -255
-0.163226 0.054858 0.172524 -231 107 21
0.053383 -0.122614 -0.283822 -1 -255 -1
0.060570 0.102607 0.466295 3 -243 81
0.129068 0.016203 -0.359881 21 249 -53
-0.132477 -0.126226 -0.453279 -107 1 -231
0.104307 0.104869 0.274955 47 231 99
-0.084421 -0.003260 -0.430748 -27 227 -113
0.029955 0.125081 0.210664 1 251 39
-0.099998 -0.122896 -0.194289 -1 -255 -1
0.087404 0.032835 -0.279060 21 253 -29
0.194199 -0.111556 -0.011172 209 -147 1
0.166585 0.042268 -0.107459 221 117 -49
0.149405 0.081199 0.207410 225 119 25
-0.137087 0.108636 0.075989 -227 117 -3
-0.110893 0.030152 -0.285385 -21 253 -29
-0.195599 -0.050023 0.007833 -255 -11 3
-0.157387 0.100982 0.465470 -23 241 -81
-0.023580 -0.122206 -0.344068 -1 -255 -1
0.158505 0.029410 -0.235088 147 205 -29
0.110110 -0.057838 -0.326578 255 -13 -9
-0.181009 -0.059149 0.374097 -17 -83 -241
-0.194279 -0.030733 -0.136732 -255 5 -5
0.117565 -0.004477 -0.417321 169 153 -115
0.172635 0.044702 0.291576 217 133 7
-0.188018 0.014911 -0.336207 -153 205 -13
0.160397 0.088155 0.427142 -55 -225 -105
0.033315 -0.120920 0.239273 -1 -255 17
0.021566 -0.114554 0.332608 -1 -255 17
0.186014 -0.031938 0.357410 -35 -175 -183
0.006984 0.008536 -0.409678 7 241 -85
-0.191085 -0.065237 0.186527 -253 -25 13
0.003515 0.101897 0.466399 -1 -241 85
0.152628 -0.006035 -0.410379 17 237 -93
-0.142257 -0.058685 -0.459828 -147 -27 -207
0.192579 -0.069648 0.131755 255 -17 3
0.110691 0.015087 -0.370508 17 243 -77
0.154536 0.056183 -0.111096 213 135 -35
0.010053 0.063931 -0.152930 9 227 -117
0.054454 0.039452 -0.209103 69 193 -151
0.041883 0.127879 0.190149 1 253 29
0.167233 0.099588 0.471309 -23 -223 121
0.115192 -0.089965 -0.227646 17 -51 -249
-0.118313 -0.084714 -0.451196 -113 -27 -227
-0.088840 0.086967 -0.094298 -41 225 -113
0.195424 -0.032856 -0.390255 235 41 -89
0.091621 0.117224 0.242806 43 241 69
-0.123334 -0.016436 -0.439534 -7 223 -123
0.124069 -0.122774 -0.080833 -1 -255 -1
-0.098737 -0.015038 -0.450253 -35 209 -141
-0.137082 -0.122979 0.055714 -1 -255 -1
0.065503 -0.023127 -0.469347 25 209 -143
0.192967 -0.084994 0.046475 255 -21 3
-0.050526 -0.122938 0.161822 -1 -255 -1
0.114457 0.118931 -0.013270 95 231 -51
0.020623 -0.017716 0.497894 3 -247 67
-0.056260 -0.012823 0.497246 -31 83 239
-0.153039 0.021266 -0.292539 -149 201 -49
-0.119678 0.111472 -0.030062 -101 223 -75
-0.188301 -0.007458 -0.231002 -177 177 49
0.175904 -0.111435 0.401511 -1 -255 1
-0.110564 -0.039727 0.237587 -255 1 -1
0.061476 -0.041643 0.487397 15 47 251
0.129615 0.107388 0.222822 201 155 29
0.069179 0.030323 -0.308504 11 251 -39
0.039156 -0.122302 -0.279775 -1 -255 -1
0.170937 -0.124453 -0.422938 183 -59 -167
-0.079618 -0.123052 -0.046937 -1 -255 -1
0.038816 -0.008730 -0.451187 7 231 -109
-0.138879 0.024907 0.448098 -111 25 229
-0.031003 -0.126811 -0.452717 -1 -255 -1
-0.037846 0.065822 -0.147397 -17 227 -115
0.137333 0.091351 -0.058979 107 215 -89
0.155415 -0.010068 0.277732 -1 -255 -5
0.187149 -0.010195 0.309644 7 -255 5
0.063273 -0.111810 0.370580 -1 -255 17
-0.006660 0.132720 0.142732 -3 255 13
0.195516 -0.003631 -0.363668 241 71 -43
0.101040 -0.095248 -0.472633 85 175 -163
0.028715 -0.122904 -0.043427 -1 -255 -1
-0.038494 -0.121453 0.227267 -1 -255 17
-0.070534 -0.120219 0.413666 1 -255 -9
0.003830 -0.123009 -0.033008 -1 -255 -1
-0.034699 -0.123219 0.179944 -1 -255 -1
-0.036518 -0.013668 0.499016 -19 3 255
0.081096 0.121337 -0.020870 13 239 -85
-0.027166 0.133715 0.088808 -1 255 -3
-0.162311 0.011082 -0.360415 19 249 -53
-0.193051 -0.034462 0.151400 -255 5 9
0.115830 0.083724 0.313567 107 203 111
-0.000727 0.133221 0.052597 -5 255 -11
0.111090 -0.071618 0.283414 255 -1 1
-0.074888 0.073936 0.355778 -35 233 95
0.059020 -0.122895 -0.157684 -1 -255 -1
-0.055805 0.115117 -0.040025 -17 217 -133
0.128895 -0.052897 0.367789 19 -83 -241
0.029928 0.095787 0.312365 9 239 89
-0.115893 -0.009439 0.262224 1 -255 -5
-0.088266 -0.123063 0.168918 -1 -255 -1
0.110624 -0.037314 -0.281981 255 -1 -1
-0.133495 -0.014078 -0.270746 -17 -255 -3
-0.168653 -0.123092 -0.193554 -1 -255 -1
-0.180762 -0.123046 -0.069063 -1 -255 -1
0.180432 0.033050 0.186688 217 135 1
-0.127583 0.020533 -0.341186 -21 249 -53
-0.073552 -0.119268 0.267000 -1 -255 17
-0.148891 0.056062 0.351871 -73 245 9
-0.158293 0.064955 0.186968 -199 151 -47
0.166473 -0.116729 0.208141 1 -1 255
-0.127358 -0.123216 -0.133019 -1 -255 -1
-0.181956 -0.083469 0.382522 -1 -39 -253
0.106333 -0.122772 0.090393 -1 -255 -1
0.071458 0.032636 -0.208649 17 243 -77
0.182551 -0.079450 -0.415090 161 9 -197
0.170228 -0.027986 0.435467 237 1 95
0.194594 -0.020719 -0.053300 253 27 -1
-0.043443 0.132995 0.061593 -11 255 -11
0.001567 0.125209 0.211141 1 251 39
-0.149608 0.082051 0.041220 -227 115 -7
-0.151698 0.054779 0.329147 -53 249 -3
0.147545 0.100732 0.457223 29 247 -59
0.164943 0.016592 0.417865 119 187 125
0.008580 0.103919 0.436278 1 255 5
0.158052 -0.010461 0.289625 -1 -255 -5
0.066719 0.034043 -0.283194 17 253 -29
0.167438 -0.006482 -0.404112 59 223 -107
-0.174438 0.041797 0.155263 -207 149 -3
0.185567 0.011015 -0.108842 225 119 -15
0.067297 -0.123211 -0.097094 -1 -255 -1
-0.189473 -0.117236 0.115100 -209 -145 3
-0.004678 -0.122915 0.205710 -1 -255 -1
0.092325 0.061190 0.410055 17 253 15
-0.130224 -0.122940 -0.049250 -1 -255 -1
0.184495 0.025241 0.153581 243 75 1
-0.049776 0.034760 -0.224805 33 111 227
-0.015035 -0.122702 -0.230318 -1 -255 -1
0.161332 0.098022 0.466401 -19 -223 121
0.081848 -0.123087 -0.119822 -1 -255 -1
0.078604 0.005805 -0.408873 19 237 -93
0.106067 -0.114874 -0.362577 255 -13 -9
-0.017004 -0.122883 -0.113257 -1 -255 -1
0.045860 0.049712 -0.178825 17 229 -113
-0.194650 -0.060178 0.029783 -255 -11 3
0.134527 -0.122972 0.020484 -1 -255 -1
0.106304 -0.122934 -0.132480 -1 -255 -1
0.118889 -0.122846 0.203187 -1 -255 -1
0.150875 0.080754 0.067148 229 115 -7
-0.095938 -0.123005 -0.138886 -1 -255 -1
-0.044743 -0.029086 -0.481152 -21 209 -145
0.194884 -0.035665 -0.115744 255 7 -5
0.081236 0.124668 0.199888 13 253 33
0.103315 -0.068430 0.483092 53 -129 213
0.036822 0.104055 0.289697 9 239 89
-0.154691 -0.123162 0.107333 -1 -255 -1
0.132233 0.033278 -0.230286 31 253 -17
-0.028125 0.085688 0.338532 -9 235 99
-0.122391 -0.122760 0.081011 -1 -255 -1
-0.095960 0.125005 -0.005291 -27 247 -55
0.141855 -0.122725 -0.206442 -1 -255 -1
-0.078187 0.129670 0.164880 -9 255 19
0.012390 0.115101 0.260343 3 205 151
0.109298 -0.044798 -0.373973 255 -13 -9
-0.145621 -0.122671 0.163150 -1 -255 -1
0.154324 0.052273 0.383281 105 231 17
-0.185473 -0.122482 0.122430 -209 -145 3
0.035984 -0.123206 -0.129049 -1 -255 -1
-0.096434 -0.123208 -0.185232 -1 -255 -1
0.052114 0.032083 -0.282507 -93 237 3
0.089061 -0.122952 0.105560 -1 -255 -1
-0.028677 0.133557 0.078608 -5 255 1
0.175758 -0.002098 -0.391644 57 225 -105
-0.192731 -0.004306 0.074351 -253 29 1
-0.053897 -0.122429 -0.268741 -1 -255 -1
0.005330 -0.122540 -0.330671 -1 -255 -1
0.142674 0.097953 0.086471 227 117 -3
-0.151298 0.075344 -0.003890 -233 103 -13
-0.075668 0.110924 0.482736 -3 -225 119
0.194497 0.008529 0.269615 215 135 -25
-0.194600 -0.052192 0.219651 19 -85 239
-0.048907 -0.122790 -0.292875 -1 -255 -1
0.027825 -0.121935 -0.395416 -1 -255 -1
0.045367 0.133423 0.088472 11 255 -3
0.170128 -0.042245 0.436705 235 -5 97
-0.094276 -0.019407 0.490684 -55 -9 249
0.048657 0.125784 0.206384 13 251 43
0.184831 0.023991 0.140123 243 73 1
-0.075092 0.113199 -0.041411 -13 229 -111
-0.198987 -0.027096 -0.252936 41 -217 -127
-0.110499 -0.021452 -0.269421 -255 -1 -1
0.079981 0.036821 -0.232471 19 253 -17
0.195009 -0.078259 -0.218070 251 -31 33
0.033245 -0.123103 -0.013942 -1 -255 -1
0.115935 -0.123247 -0.211774 -1 -255 -1
0.194894 -0.093059 -0.101703 233 105 -7
-0.099359 -0.123068 -0.208608 -1 -255 -1
0.161294 -0.122833 0.139666 -1 -255 -1
-0.151898 0.081377 0.108904 -223 123 1
0.182334 -0.054304 0.400359 245 -1 71
-0.158314 0.051826 0.369197 -117 225 17
-0.026254 -0.122840 -0.140007 -1 -255 -1
0.140420 -0.013356 -0.273193 17 -255 -3
-0.165578 -0.123207 0.142818 -1 -255 -1
-0.167328 0.017314 -0.261729 -163 193 -37
-0.016069 0.103908 0.439652 1 255 5
0.195341 -0.059807 0.072868 255 -11 1
0.045252 0.125714 0.206357 13 251 43
-0.195462 -0.049086 0.374762 -253 -25 7
-0.132879 -0.095970 -0.457919 75 -201 137
0.122180 -0.122780 -0.109232 -1 -255 -1
-0.038346 -0.122902 0.100984 -1 -255 -1
-0.080762 -0.122748 0.166976 -1 -255 -1
-0.199914 -0.011349 0.253150 -255 5 -7
0.179957 -0.088804 0.411718 219 -31 129
-0.141974 0.075982 0.267677 -211 141 29
0.127331 0.119761 0.141902 147 207 17
0.140876 0.095759 -0.016865 229 113 -9
0.177612 -0.123265 0.146442 -1 -255 -1
0.070609 0.132377 0.084547 11 255 -3
0.123052 -0.123119 -0.193048 -1 -255 -1
-0.128111 -0.123124 -0.054205 -1 -255 -1
0.153902 0.075951 0.164466 231 109 9
0.100297 0.094806 0.301576 47 231 99
-0.166896 0.048250 0.083806 -233 105 -11
-0.168381 -0.119663 0.208119 -1 -1 255
0.089081 0.051819 -0.164005 45 223 -113
-0.040619 0.026478 -0.341367 -9 249 -57
0.048081 0.132042 0.142130 9 255 11
-0.111018 -0.113854 0.276855 -255 -1 1
-0.008636 -0.122902 -0.233820 -1 -255 -1
-0.189641 -0.011304 0.362715 -197 115 113
0.165822 -0.024734 0.448103 225 1 121
-0.022731 -0.049680 -0.499748 -11 -147 -207
-0.193746 -0.026428 0.349418 43 -213 -133
-0.163310 0.014455 0.426893 -247 -19 57
-0.133486 -0.109820 0.422788 5 -255 9
0.165771 -0.122929 -0.163691 -1 -255 -1
0.199113 0.000546 0.279394 245 67 -13
-0.176402 0.034789 0.007587 -209 145 -7
-0.105062 0.131693 0.088232 -45 251 -3
0.108002 0.029002 -0.299449 21 253 -29
0.192945 -0.069773 0.180200 255 -5 1
-0.148481 0.097062 0.441208 -33 251 -31
-0.022601 -0.001732 -0.435615 -1 231 -107
-0.192521 -0.094399 -0.209765 -253 -27 19
0.018480 0.005816 -0.417453 7 241 -85
0.047613 0.093809 0.316587 9 239 89
-0.098411 0.054236 0.458663 -49 -79 237
0.196277 -0.094986 -0.041823 221 125 -3
0.145567 0.038077 0.432433 47 249 23
-0.152431 0.071532 0.231024 -231 107 23
-0.181925 0.018155 0.346849 -235 95 33
0.191982 -0.026942 -0.184255 251 35 -25
-0.183237 0.022516 0.321032 -235 95 21
0.188425 -0.004608 -0.189324 221 127 -13
-0.119089 0.108166 0.250029 -137 207 59
0.059121 -0.122414 0.217290 -1 -255 17
0.148389 -0.035016 -0.385710 -29 -111 227
0.158020 0.053433 0.305097 55 249 -1
-0.165001 -0.122946 -0.133878 -1 -255 -1
0.142881 -0.012608 -0.306549 17 -255 -3
-0.122493 0.124623 0.097558 -141 213 -3
0.015720 -0.122980 -0.057586 -1 -255 -1
-0.026599 -0.122814 0.120146 -1 -255 -1
-0.103060 0.002464 -0.412389 -25 235 -93
-0.040465 -0.126612 -0.450706 -1 -255 -1
-0.170125 -0.096121 0.209938 -17 -53 249
-0.004924 0.112941 0.267837 -5 243 75
0.035309 -0.111203 0.391424 -1 -255 3
-0.142980 0.044671 -0.150022 -61 227 -97
-0.056342 0.131923 0.052374 -11 255 -11
-0.170421 -0.022789 -0.371512 51 -201 147
0.063915 0.012445 -0.391006 17 245 -69
-0.110758 -0.041963 -0.315372 -255 -1 -1
-0.024746 -0.122984 -0.016106 -1 -255 -1
-0.178345 0.013791 0.375043 -239 59 63
-0.003541 0.105347 0.458840 1 247 -65
-0.023505 -0.123109 -0.021202 -1 -255 -1
0.016377 -0.123030 -0.021518 -1 -255 -1
0.191747 -0.114689 -0.071426 213 -141 -3
0.189595 0.011921 0.326398 131 215 43
0.118063 -0.110160 0.413813 -5 -255 9
0.122797 -0.016082 -0.439000 7 223 -123
-0.117232 -0.123007 -0.067228 -1 -255 -1
0.185254 -0.041446 0.390527 181 69 167
0.023843 0.023783 -0.349537 -89 239 9
-0.188335 0.008602 -0.064447 -235 101 -7
-0.185058 0.024767 0.087593 -213 139 -5
-0.012113 -0.122352 -0.283905 -1 -255 -1
-0.193082 -0.015239 -0.274444 25 -243 -75
-0.103454 0.123670 0.201229 -45 249 35
0.193771 -0.021270 0.115936 255 3 7
0.081160 -0.122051 -0.325368 -1 -255 -1
0.117336 -0.123275 -0.156802 -1 -255 -1
-0.193689 -0.054331 0.126822 -255 -7 5
-0.129256 -0.079132 0.376484 -19 -83 -241
-0.203605 0.050058 -0.087185 -143 13 -211
0.006976 -0.119311 0.259544 -1 -255 17
-0.086463 -0.122918 0.010346 -1 -255 -1
-0.102498 -0.122894 -0.022707 -1 -255 -1
0.171944 0.045428 0.286016 217 133 7
-0.109170 0.108458 0.470341 -27 241 -79
0.120823 0.115568 0.213757 157 197 39
-0.066163 0.083749 0.335981 -19 231 107
0.008050 0.062842 0.431687 3 255 15
-0.031987 -0.074535 0.488269 -11 -175 185
0.197164 -0.099029 -0.049273 251 -41 -3
-0.010552 0.133064 0.050560 -5 255 -11
0.118045 0.036332 -0.202221 -85 121 209
-0.174572 0.039666 0.072783 -205 151 -7
0.043434 0.034573 -0.267072 35 251 -33
0.030109 0.124801 0.215890 1 251 43
-0.096955 -0.075203 0.477650 -37 -193 163
-0.078467 0.104028 0.428716 -5 255 7
0.098076 0.037035 -0.211528 13 255 -9
-0.103579 -0.125339 -0.452676 -95 -237 -1
0.094567 -0.123243 0.208970 -1 -255 17
0.076640 -0.123024 0.038299 -1 -255 -1
0.172793 -0.093477 -0.223275 13 -43 -251
0.176887 -0.122751 0.118546 -1 -255 -1
-0.183403 -0.121147 -0.196707 -221 -127 -9
0.113968 0.128218 0.088969 91 239 -3
-0.188427 0.006260 -0.090959 -233 101 -11
0.027362 0.122335 0.229924 1 251 43
0.098653 -0.039532 -0.476380 77 125 -209
-0.129545 0.035183 -0.214253 -31 253 -9
-0.153267 0.065974 0.242231 -229 105 41
-0.051485 0.007316 -0.410275 -7 239 -91
-0.186523 -0.120667 0.125507 -209 -145 3
-0.064263 0.124812 -0.011250 -11 249 -51
0.174714 0.039489 0.069665 205 153 -7
0.151244 -0.012279 -0.297875 17 -255 -3
-0.052568 -0.109755 0.442885 -3 -255 7
-0.021252 -0.122825 -0.201199 -1 -255 -1
0.123348 -0.122932 0.095798 -1 -255 -1
-0.182194 0.026314 0.017433 -209 145 -7
-0.094735 -0.115476 0.416940 -49 -249 21
-0.011684 -0.036148 -0.490322 -7 185 -175
-0.081517 -0.087105 -0.480718 -151 -111 -173
0.122833 -0.123205 -0.026594 -1 -255 -1
-0.020037 -0.126655 -0.471134 -1 -255 -1
-0.160403 0.040505 0.405156 -219 117 61
-0.054494 -0.122841 0.142763 -1 -255 -1
0.117578 0.124938 0.033293 93 237 -11
-0.105426 -0.072057 0.480270 -39 -193 161
0.167229 -0.123139 0.057078 -1 -255 -1
0.070494 -0.122732 0.182482 -1 -255 -1
-0.043504 -0.116676 0.299209 -1 -255 17
-0.168349 -0.011228 -0.329626 -17 -255 -3
0.110782 -0.103767 0.297878 255 -1 1
-0.192194 -0.099794 -0.208211 -247 -61 -13
0.194220 -0.075798 -0.033955 253 -23 -1
0.018863 0.133660 0.077503 3 255 1
-0.034940 -0.123087 -0.057301 -1 -255 -1
0.128137 0.096502 0.261501 139 135 165
-0.159074 0.065517 0.141439 -231 107 5
0.112244 -0.014102 -0.368599 17 -255 -3
0.074996 -0.123083 -0.173633 -1 -255 -1
0.140259 -0.132301 -0.448456 133 1 -219
0.048075 0.028235 -0.326290 9 251 -41
-0.109891 -0.044167 0.484901 -59 -43 245
-0.092062 0.062489 0.377522 -17 255 9
0.067419 -0.000023 -0.425362 19 237 -93
0.148989 0.053205 0.410566 85 239 21
0.127062 0.042539 -0.164626 67 221 -109
0.178947 0.031840 0.038249 209 145 -7
-0.070227 0.081401 0.339413 -19 231 107
0.165405 -0.123323 -0.214361 -1 -255 -1
-0.108457 0.048067 -0.163726 -45 225 -113
-0.199739 -0.003030 0.286866 -255 -1 1
0.127412 0.115971 0.182875 151 203 23
-0.157016 0.042586 0.412641 -219 117 61
-0.023890 0.132917 0.049796 -5 255 -11
-0.092284 -0.122446 -0.319360 -1 -255 -1
0.106324 0.020817 -0.349247 17 249 -57
0.176196 0.092587 0.427274 37 253 9
0.082181 0.005412 -0.408315 19 237 -93
0.153323 0.069851 -0.012789 233 103 -13
0.071038 0.130052 0.160331 9 255 19
-0.069464 -0.068103 -0.493394 -117 -61 -217
0.182135 -0.069408 -0.395061 1 -65 247
-0.075956 0.056450 0.462069 -37 107 229
-0.122554 -0.097039 -0.463832 -121 55 -217
-0.028262 -0.122949 -0.214817 -1 -255 -1
-0.146912 0.080759 -0.055126 -215 -91 101
0.081760 0.119555 -0.026271 13 239 -85
-0.130796 -0.022647 -0.445530 -67 183 -165
0.065450 -0.120065 0.412285 1 -255 -9
0.018571 0.040828 -0.198882 -7 235 -99
0.042653 -0.101060 -0.452537 11 -255 -1
-0.114596 0.128704 0.088922 -99 235 -3
0.071264 -0.123052 0.002609 -1 -255 -1
0.031266 -0.122943 0.011115 -1 -255 -1
-0.002860 0.042005 -0.245001 -21 253 -21
0.123503 0.000102 -0.402772 159 161 -117
-0.114294 0.059591 0.401350 -31 253 11
0.149970 -0.056442 0.463440 167 -41 187
-0.180009 -0.091476 -0.417153 -159 171 -103
-0.066707 0.118501 0.241713 -9 249 57
-0.164895 0.052517 0.120549 -235 99 3
-0.136897 0.086293 -0.071250 -111 211 -93
0.197765 -0.041933 -0.384998 251 11 -49
0.190642 -0.019332 0.207067 255 7 5
0.192569 -0.011676 0.123254 253 23 5
-0.029143 -0.127581 -0.485838 1 255 1
-0.092284 0.034397 -0.195054 -31 243 -71
-0.133108 -0.123229 0.112195 -1 -255 -1
-0.161408 0.007603 -0.374815 1 243 -79
-0.057538 0.034821 -0.204806 -17 243 -77
0.163907 -0.110964 0.401641 -1 -255 1
-0.019505 0.126586 0.203006 -1 251 39
0.049890 -0.103013 -0.441486 -1 -1 -255
0.180097 -0.048667 0.407200 241 -3 83
-0.187413 -0.080965 0.396423 -235 -31 95
-0.068255 -0.126669 -0.445875 -1 -255 -1
0.110471 -0.070125 -0.291914 255 -1 -1
0.019894 -0.122036 -0.320916 -1 -255 -1
-0.138632 -0.017380 -0.435919 -41 215 -131
-0.170650 -0.081018 0.380641 -19 -83 -241
-0.112316 0.108161 -0.041998 -47 233 -91
0.167570 -0.044186 -0.439510 183 27 -175
0.099005 0.113201 0.253437 29 247 59
0.111667 -0.023764 0.487043 63 -5 247
0.029708 0.003882 0.472137 19 143 211
-0.123541 -0.074613 0.374965 -19 -83 -241
-0.163065 -0.123067 0.023782 -1 -255 -1
-0.025746 -0.114939 0.335228 -1 -255 17
0.086758 -0.122914 -0.059744 -1 -255 -1
-0.182836 0.015666 -0.114806 -225 119 -15
-0.124726 0.118654 0.172367 -155 201 25
-0.110663 -0.012317 0.228610 -255 1 -1
-0.157801 -0.028398 -0.433608 -33 -253 7
-0.183854 -0.105980 -0.414241 -221 -53 -117
-0.105780 -0.122524 -0.295165 -1 -255 -1
-0.069300 -0.100883 -0.478084 -5 -255 1
-0.182668 -0.122276 0.179572 -209 -145 13
0.191258 -0.003421 0.147164 253 23 5
-0.059344 0.063390 0.406945 -13 255 13
-0.067606 0.121879 0.226007 -9 253 37
-0.195429 -0.035819 0.029127 -255 5 1
0.073968 0.062201 0.400220 13 255 13
-0.002158 -0.123096 0.165185 -1 -255 -1
0.141517 0.100590 0.084697 227 117 -3
-0.130425 -0.123001 0.151899 -1 -255 -1
0.144325 0.084758 -0.061293 189 163 -47
-0.173152 0.024402 -0.154632 -199 159 -17
0.007642 0.054659 0.468872 5 -23 253
-0.195115 -0.023904 -0.036176 -253 27 -1
-0.096511 -0.122710 -0.277598 -1 -255 -1
0.189665 -0.117757 -0.041928 209 -147 -1
-0.035768 -0.127443 -0.449748 -1 -255 -1
-0.001861 -0.040644 -0.496668 -5 183 -177
-0.094411 -0.123189 -0.200988 -1 -255 -1
-0.171693 0.017931 -0.310513 -9 255 -13
0.098950 0.130477 0.047271 37 251 -15
0.046134 0.131497 0.151292 9 255 19
0.194565 -0.017697 0.036386 253 29 1
-0.190174 -0.000365 -0.251291 -213 127 59
-0.179488 -0.122722 0.095830 -1 -255 -1
0.057902 -0.092139 0.468237 25 -119 223
0.176210 0.020738 -0.159066 199 159 -15
0.163106 -0.110990 0.400770 -1 -255 1
-0.171866 -0.044434 -0.433430 -209 -27 -141
-0.153260 -0.122802 -0.215427 -1 -255 -1
-0.141698 -0.107638 -0.451024 -131 -47 -215
0.111691 0.129412 0.061581 99 235 -13
-0.118693 -0.094346 -0.394575 -17 -45 251
0.180611 0.025297 0.333734 235 95 33
0.139571 0.055482 0.404111 45 251 15
-0.010682 -0.096365 -0.493556 -9 -51 -249
-0.037775 0.097141 0.441401 -1 -255 7
0.041575 -0.119848 0.256713 -1 -255 17
0.036034 0.133514 0.104490 1 255 -3
-0.123200 -0.084938 -0.393464 -17 -45 251
0.082527 0.068088 0.368600 39 227 111
-0.194699 -0.055478 0.065985 -255 -11 3
-0.004288 -0.122958 -0.047685 -1 -255 -1
0.063713 0.129661 0.022375 11 253 -27
0.062581 -0.122353 -0.291130 -1 -255 -1
-0.111040 -0.096194 0.330274 -255 -1 1
0.114388 -0.123083 -0.018342 -1 -255 -1
-0.046256 -0.122988 0.132668 -1 -255 -1
0.010708 -0.116240 0.432199 1 -243 75
0.142821 -0.071571 -0.440392 111 -37 -227
0.107000 -0.122897 0.063149 -1 -255 -1
-0.197275 -0.098890 -0.057646 -251 -41 -3
0.117526 -0.084880 -0.460010 237 -63 -71
0.049069 -0.123279 -0.176833 -1 -255 -1
-0.192331 -0.001733 -0.059944 -247 61 -3
-0.142772 -0.123190 0.096128 -1 -255 -1
-0.149482 0.008890 -0.369666 1 243 -79
-0.112663 -0.070435 0.478537 -53 -129 213
0.088643 0.059879 0.440639 17 253 15
-0.146891 -0.061648 0.464095 -127 -41 217
0.106977 -0.086805 -0.388910 255 -13 -9
-0.072674 0.116264 -0.036225 -17 211 -143
-0.055243 -0.122057 -0.387730 -1 -255 -1
0.193229 -0.110581 -0.117568 221 -127 -9
-0.119269 0.029129 -0.290108 -25 253 -29
-0.138899 -0.027013 -0.448436 -85 145 -191
0.180302 -0.122878 0.127970 -1 -255 -1
0.196430 0.001278 -0.284110 239 85 29
0.061411 0.127534 0.188686 13 253 33
-0.008127 -0.076076 0.485225 -1 -249 55
0.094283 -0.122696 0.200813 -1 -255 -1
0.051461 0.052804 0.466056 21 -29 253
-0.191272 -0.114619 0.081188 -211 -145 3
0.064557 -0.113289 0.348985 -1 -255 17
0.006802 0.023668 -0.350151 15 245 -71
0.118274 -0.041098 0.482732 93 -27 237
-0.014381 -0.126671 -0.458969 -1 -255 -1
0.186060 0.018359 0.267765 233 101 -13
-0.074877 -0.081958 -0.486253 -97 -65 -227
-0.093307 -0.119086 0.263631 -1 -255 17
-0.085924 -0.123075 0.111496 -1 -255 -1
-0.093639 -0.039241 0.490085 -53 -23 249
-0.110723 -0.075452 0.251572 -255 1 -1
0.191907 -0.024823 0.179609 255 5 9
-0.134327 0.058331 0.354603 -35 253 7
-0.066698 0.035083 -0.274430 -15 253 -17
0.147445 0.080976 -0.055932 211 139 -35
-0.003155 -0.018017 0.498491 -3 -247 67
0.173051 -0.056493 0.428954 241 -5 85
-0.027018 0.064033 0.386582 -9 227 117
0.175920 0.030876 0.355740 235 95 33
-0.175665 -0.119329 -0.418727 -183 -59 -167
-0.057383 -0.111556 0.385312 -1 -255 17
-0.062100 -0.109945 0.464344 1 -255 3
-0.097954 -0.122897 0.008948 -1 -255 -1
-0.088048 -0.123291 0.193489 -1 -255 -1
0.040896 -0.123046 0.031679 -1 -255 -1
0.012497 -0.120003 0.253821 -1 -255 17
-0.194119 -0.034155 0.106508 -255 3 7
0.191459 -0.007722 0.226119 189 125 -117
0.191003 0.006385 0.080212 243 75 1
-0.195121 -0.027432 -0.044211 -255 7 -1
-0.101004 0.131642 0.102667 -47 251 -3
-0.059021 0.083428 0.338482 -35 233 95
0.022197 0.120449 0.237521 1 249 55
-0.103248 -0.112950 0.423988 -49 -249 21
0.111061 0.068417 -0.122694 65 221 -111
0.166142 0.005305 -0.378047 43 237 -83
0.008014 -0.127721 -0.468946 1 -255 1
0.181319 0.031480 0.177187 217 135 1
0.155428 -0.123207 -0.202237 -1 -255 -1
0.010004 -0.122952 -0.157241 -1 -255 -1
0.103097 0.123776 -0.005705 29 247 -53
-0.153851 0.054627 0.293868 -57 249 -5
0.103869 -0.123188 0.145233 -1 -255 -1
-0.004399 -0.121652 0.224272 -1 -255 17
-0.019715 -0.112055 0.368133 -1 -255 17
0.175732 0.041227 0.239393 217 135 1
-0.195684 -0.056444 -0.216007 -253 -13 35
0.024415 -0.122775 0.166703 -1 -255 -1
0.062942 -0.122961 0.198343 -1 -255 -1
-0.098687 -0.010030 -0.440534 -27 227 -113
-0.093536 -0.075464 0.479175 -39 -193 161
-0.141895 0.091054 0.221275 -219 125 31
-0.194811 0.004683 0.253312 -219 113 -65
0.014325 -0.119476 0.263269 -1 -255 17
-0.099734 0.102833 0.433603 -3 255 5
-0.190745 -0.075405 -0.177895 -251 -27 -43
0.199230 -0.034780 -0.376972 253 7 -33
-0.021197 -0.119335 0.262342 -1 -255 17
0.076717 0.113027 0.483353 1 243 -79
0.040101 0.129437 0.179800 1 253 29
0.107953 -0.068639 -0.377150 255 -13 -9
-0.156813 0.030827 -0.223079 -31 253 -17
-0.002498 0.044490 -0.197213 -11 101 -235
-0.196565 -0.018738 -0.239493 -251 33 27
0.196974 -0.095281 0.052370 217 133 -1
0.063753 0.041568 -0.202394 63 193 -153
0.061598 0.074245 -0.126359 21 227 -113
0.192933 -0.008556 0.106383 253 27 3
-0.171128 -0.003087 -0.396051 -59 223 -107
0.082183 -0.116097 0.434831 1 -243 75
0.118684 0.116799 0.212582 79 239 43
0.194190 -0.011423 0.013050 253 25 3
0.194899 -0.068010 -0.012995 253 -29 -1
-0.110619 -0.026516 0.248711 -255 1 -1
-0.151005 -0.122832 0.111314 -1 -255 -1
0.103900 -0.121963 -0.337680 -1 -255 -1
-0.127009 0.090624 0.280666 -163 183 67
0.130438 0.031423 -0.258297 27 253 -27
0.102631 0.034877 -0.247532 13 253 -27
-0.057862 0.132896 0.085318 -11 255 -3
0.194118 -0.011057 -0.016292 253 27 -1
0.105205 0.082068 0.448649 -217 -133 -1
0.195024 -0.101146 -0.126168 249 -51 -9
0.002438 -0.127199 -0.484013 1 -255 1
-0.013863 -0.123153 -0.108128 -1 -255 -1
0.163707 0.052781 0.198272 235 99 15
-0.000532 0.098588 0.308039 -5 241 85
-0.048752 -0.122974 0.148836 -1 -255 -1
0.189657 0.000355 -0.251018 213 127 59
0.009622 0.103434 0.293454 5 241 85
0.056392 -0.017926 -0.463155 25 209 -143
0.098593 0.084301 -0.096315 43 225 -113
0.194007 -0.074655 0.013047 253 -25 3
0.199957 -0.011760 0.268979 255 7 -1
-0.189012 0.015966 0.090372 -243 79 1
-0.152017 0.075689 0.197352 -193 155 -59
-0.019732 0.133810 0.119717 -1 255 11
0.128102 0.121020 0.094256 165 195 -3
-0.128596 -0.122973 0.129163 -1 -255 -1
-0.108027 -0.066540 -0.384124 -255 -13 -9
-0.191276 -0.000100 0.152168 -253 23 5
0.122506 0.124658 0.088587 141 213 -3
0.064654 -0.123052 0.005589 -1 -255 -1
-0.110744 -0.106938 0.212308 -255 1 -1
0.110980 -0.054360 0.342040 255 -1 1
-0.083733 0.132373 0.118030 67 245 9
-0.193123 -0.071199 -0.200962 -251 5 39
0.181165 0.028361 0.311816 233 103 15
-0.070665 -0.122885 0.174904 -1 -255 -1
-0.164364 -0.010921 -0.335679 -17 -255 -3
0.193758 -0.111632 0.043455 209 -147 1
-0.145696 0.069075 0.268931 -219 125 35
0.058222 0.117146 0.248405 9 249 57
0.106299 0.125901 0.179745 51 247 33
0.010938 -0.123055 -0.088645 -1 -255 -1
0.053765 0.032859 -0.264459 51 249 -23
0.184809 -0.123102 0.020136 -1 -255 -1
0.173506 0.043749 0.272267 217 133 1
-0.050130 -0.120498 0.403617 1 -255 -9
-0.025722 0.056358 -0.167490 -9 227 -115
-0.113982 -0.032644 0.485056 -93 -27 237
0.176062 -0.123102 0.153834 -1 -255 -1
0.159847 -0.058376 0.453768 199 -33 157
0.110555 -0.066968 0.305270 255 -1 1
-0.110933 -0.024158 0.315419 -255 1 -1
0.038515 0.037038 -0.231069 27 253 -19
-0.056198 0.130027 0.170494 -11 253 29
-0.018250 0.130194 0.016798 -3 253 -29
-0.148154 -0.122839 -0.162517 -1 -255 -1
-0.127094 0.098761 -0.051399 -105 215 -87
-0.162643 0.027230 0.427304 -247 43 49
-0.157133 -0.117445 -0.437567 -161 -49 -191
0.139202 -0.122820 -0.138183 -1 -255 -1
-0.122439 0.021833 0.457421 -205 -5 151
-0.130346 0.083368 0.292264 -169 179 65
0.168832 0.021196 -0.225325 183 177 -17
0.158515 -0.123167 -0.205158 -1 -255 -1
-0.155954 0.060830 -0.084033 -205 145 -41
-0.117350 0.011119 -0.381160 -17 243 -77
0.193688 -0.010444 -0.027111 253 27 -1
0.049376 0.100102 0.458833 3 -243 81
-0.036004 0.128820 0.183942 -1 253 29
-0.127447 0.023952 -0.322273 -25 251 -37
-0.027677 -0.122869 -0.011506 -1 -255 -1
-0.173864 -0.004862 0.410580 -239 61 61
-0.031884 -0.122725 -0.290205 -1 -255 -1
0.047671 0.096695 0.308843 9 239 89
0.152349 -0.008246 -0.415947 17 237 -93
0.157947 -0.097889 0.384373 1 -39 -253
0.085510 -0.112498 0.363305 -1 -255 17
-0.053838 0.030876 -0.310283 -11 251 -39
0.162576 -0.122715 -0.214487 -1 -255 -1
0.192079 -0.007220 -0.124248 253 33 -7
-0.171527 0.018671 0.394488 -237 81 45
0.026580 0.102719 -0.070086 5 231 -109
-0.110687 -0.107893 0.224598 -255 1 -1
-0.021443 0.115017 -0.042429 -3 229 -113
0.047803 -0.122858 0.083187 -1 -255 -1
0.072095 0.070607 -0.132081 21 227 -115
0.092700 0.031101 -0.291673 19 253 -29
0.037205 0.060145 0.452045 9 251 41
0.060060 -0.122796 -0.173262 -1 -255 -1
-0.149000 -0.096200 0.429879 -181 -181 1
-0.153858 0.000425 -0.393958 -9 235 -101
-0.056201 0.044566 -0.185791 -23 207 -149
0.109123 -0.122864 -0.189201 -1 -255 -1
0.136228 0.058850 0.354232 35 253 7
0.007531 -0.122579 -0.282083 -1 -255 -1
-0.019888 -0.122826 -0.265514 -1 -255 -1
-0.134484 0.045439 -0.154425 -69 219 -111
0.133658 0.102928 0.462273 33 247 -57
-0.113612 0.040440 -0.174135 -55 205 -143
-0.171844 0.045841 0.169744 -201 157 1
0.100119 0.070659 -0.123054 43 225 -113
-0.065692 -0.005904 -0.440810 -19 229 -109
-0.001528 -0.122821 -0.206088 -1 -255 -1
0.173154 -0.102729 0.384618 -3 -15 -255
0.187919 -0.108932 0.208318 1 -1 255
-0.099732 -0.116816 0.297683 -1 -255 17
-0.051305 -0.123078 0.077557 -1 -255 -1
0.197961 -0.066261 0.212173 255 -11 -7
0.160195 0.053237 0.296068 57 249 -5
0.136607 0.104215 -0.024800 153 197 -55
0.118221 0.101061 0.464928 -27 -225 119
0.126139 0.114465 -0.008291 131 215 -37
0.144033 -0.123299 -0.156747 -1 -255 -1
0.189435 -0.020910 -0.202476 253 25 -19
-0.086068 -0.122933 0.076620 -1 -255 -1
-0.145476 0.091946 0.141310 -225 121 5
-0.045812 -0.123011 -0.051436 -1 -255 -1
0.003269 0.070862 -0.140737 9 227 -117
-0.170075 0.044338 0.057180 -181 179 -9
0.140206 0.098667 0.007754 227 115 -7
0.034357 -0.005114 -0.444083 7 231 -109
0.137403 0.108243 0.088476 227 117 -3
-0.120059 0.046972 0.449755 -95 -47 233
0.132590 0.024065 -0.320466 25 251 -37
-0.124422 0.096917 0.268204 -151 193 69
-0.139527 -0.045266 0.472490 -127 -41 217
-0.140271 -0.123067 0.163752 -1 -255 -1
0.196526 -0.030285 0.079814 255 -9 1
-0.166408 -0.003355 -0.398438 -59 223 -107
-0.145537 0.072780 -0.091310 -119 209 -85
0.166222 0.050669 0.157666 183 177 -5
-0.105905 0.122723 -0.009606 -45 245 -51
0.043304 0.084086 0.341025 11 235 99
0.029010 -0.122860 -0.215889 -1 -255 -1
-0.008413 -0.122927 0.069618 -1 -255 -1
-0.065074 0.129946 0.166107 -9 255 19
0.194493 -0.035261 -0.134239 255 5 -5
-0.052722 -0.039317 0.487566 -15 47 251
-0.168445 0.035652 0.381596 -221 121 45
0.175512 0.025290 -0.119985 199 159 -15
-0.193744 -0.094857 -0.167913 -239 87 -5
-0.193861 -0.080261 -0.075995 -253 -29 -1
0.110773 -0.115033 0.291368 255 -1 1
0.019795 0.087677 0.334935 9 235 99
-0.010707 -0.126672 -0.474350 -1 -255 -1
-0.193741 -0.017978 -0.111099 -253 25 -5
-0.191595 -0.087260 -0.147302 -255 13 -5
-0.113324 -0.123057 -0.074581 -1 -255 -1
-0.092942 0.130567 0.032676 -37 251 -15
0.078988 0.130371 0.147840 9 255 19
-0.158944 0.095970 0.445185 -33 251 -33
0.022936 -0.089369 0.473816 23 -111 227
0.002636 -0.123068 -0.039619 -1 -255 -1
0.002542 -0.123193 -0.097645 -1 -255 -1
0.018296 0.088397 0.331938 9 235 99
0.058361 0.051824 -0.172508 17 229 -113
0.193786 -0.027378 0.124438 255 3 7
0.078512 0.132022 0.121616 9 255 11
0.186010 0.082056 0.448654 237 91 23
0.099139 0.062403 0.371076 65 221 109
0.083034 -0.122923 -0.018533 -1 -255 -1
0.131342 0.054624 0.437062 55 245 43
0.077039 0.021000 -0.355062 17 247 -59
0.165259 -0.012090 -0.275351 7 -255 -17
-0.197730 -0.044943 0.208206 -249 29 -51
0.156517 0.056727 0.254745 219 127 29
-0.143681 0.094967 0.163689 -225 119 13
-0.172348 -0.025064 -0.417507 -213 15 -139
-0.058497 0.097568 0.305135 -9 239 89
0.005727 0.001103 -0.430162 -1 239 -91
-0.029665 -0.123016 -0.120243 -1 -255 -1
-0.134888 -0.009469 0.260193 1 -255 -5
-0.157021 0.065568 0.209980 -231 107 23
-0.025141 -0.123109 0.024265 -1 -255 -1
-0.012558 -0.122240 -0.326546 -1 -255 -1
-0.049253 -0.079321 -0.486123 -29 -39 -251
-0.147874 0.081827 -0.010847 -231 107 -11
0.097170 0.091383 0.311681 47 231 99
0.078498 0.003944 0.465764 35 145 207
-0.162643 -0.122864 0.147623 -1 -255 -1
-0.125466 -0.123049 -0.020589 -1 -255 -1
0.111418 -0.030230 -0.240524 17 -51 -249
0.164576 -0.084225 -0.434128 -165 57 185
0.165014 -0.009023 0.440430 193 155 63
-0.077673 0.092662 0.314914 -17 237 93
-0.050688 -0.122380 -0.303756 -1 -255 -1
-0.040289 0.077141 -0.123585 -19 231 -109
0.110328 -0.116350 -0.235941 255 -13 -9
-0.137374 -0.027625 0.224409 -13 -45 251
-0.069989 -0.092901 -0.484648 -91 -85 -223
0.160812 0.062305 0.118139 231 105 -3
-0.152862 -0.070942 -0.434502 155 37 199
-0.129459 -0.009993 0.275063 1 -255 -5
-0.013273 -0.018024 0.496976 -3 -247 67
-0.145686 0.027248 -0.282293 -25 253 -27
0.130778 0.118984 0.070811 131 219 1
0.110837 -0.059913 0.290164 255 -1 1
0.192898 -0.015757 -0.135302 253 33 -7
0.126006 -0.009619 0.273101 -1 -255 -5
-0.025480 0.007448 -0.411399 -7 241 -85
-0.095666 -0.119737 0.257560 -1 -255 17
0.195455 -0.037679 -0.000068 255 5 1
0.050621 -0.123146 0.208410 -1 -255 -1
-0.161523 -0.122972 0.063821 -1 -255 -1
-0.173371 -0.123123 -0.034386 -1 -255 -1
-0.165197 -0.007105 -0.407065 -63 225 -101
-0.153568 -0.013678 0.464446 -177 -5 183
-0.196831 -0.033447 0.214321 -211 81 -119
0.195798 -0.037346 -0.036831 255 5 -1
0.098274 -0.122559 -0.273579 -1 -255 -1
0.119210 -0.106316 -0.463066 105 -63 -225
0.005675 0.029832 -0.323878 15 249 -51
0.110696 -0.046945 0.321757 255 -1 1
-0.174236 -0.079791 -0.396118 17 45 -251
0.138835 0.057790 0.365995 35 253 7
-0.193556 -0.008435 -0.015908 -253 27 -1
0.109958 0.032651 -0.259483 13 253 -27
-0.195515 -0.031378 0.369275 -229 63 91
0.053535 -0.020205 -0.467561 21 209 -145
0.038849 -0.122745 -0.187096 -1 -255 -1
0.128527 -0.123118 0.129218 -1 -255 -1
-0.195801 -0.064071 -0.398008 -247 -21 -61
-0.180258 -0.068446 -0.394321 -1 -65 247
0.197651 -0.000285 0.326824 243 63 41
-0.146830 -0.073951 -0.438462 133 49 213
0.132482 0.109050 0.192415 201 155 29
-0.000629 -0.126929 -0.477198 -1 -255 -1
-0.002722 -0.129611 -0.491103 -43 1 -251
-0.109671 0.084766 -0.091095 -65 221 -111
-0.110523 -0.095528 0.299829 -255 -1 1
0.069789 0.131200 0.052679 11 255 -11
-0.193405 -0.006422 -0.038755 -253 25 -1
0.003437 0.043118 -0.230642 21 253 -21
0.012682 0.006287 0.471850 5 37 253
-0.193114 -0.010133 -0.109931 -253 33 -7
0.191081 -0.047084 -0.385996 -29 -111 227
-0.189664 0.004077 -0.086973 -233 101 -11
-0.037443 -0.122801 -0.221708 -1 -255 -1
0.178463 0.030364 -0.011510 209 145 -9
-0.164957 0.047878 0.072220 -233 101 -5
-0.019504 -0.122899 -0.199186 -1 -255 -1
-0.151948 -0.109322 0.208647 -3 -13 255
0.188535 0.010601 -0.036428 239 87 -3
0.074959 -0.023608 -0.467816 29 209 -145
0.138833 0.020515 -0.337159 103 227 -51
-0.147577 -0.123036 -0.216607 -1 -255 -1
0.095947 -0.069937 -0.481315 25 -253 -15
0.013431 0.025677 0.470658 7 39 251
-0.195242 -0.048563 0.049844 -255 -11 3
0.059165 0.103717 0.434220 3 255 7
0.156082 -0.122865 0.009644 -1 -255 -1
-0.058865 -0.111814 0.438785 1 -197 163
0.147367 -0.122933 -0.163590 -1 -255 -1
0.090481 0.131240 0.045324 -31 253 -15
-0.047951 0.035970 0.465906 -21 97 235
0.179687 0.029137 -0.000925 209 145 -9
0.181468 0.092265 0.420364 37 253 9
-0.062226 -0.122842 -0.074582 -1 -255 -1
-0.100009 -0.116154 0.307007 -1 -255 17
-0.168708 -0.130430 -0.425081 -223 1 -125
-0.016815 -0.122959 0.099944 -1 -255 -1
-0.014372 0.081922 0.348534 -9 235 99
0.042428 0.032596 -0.282045 37 249 -41
-0.110658 -0.037581 0.224202 -255 1 -1
0.092003 -0.007094 -0.436487 27 227 -113
0.058575 0.097695 0.305785 9 239 89
0.146481 0.088412 0.168613 225 119 13
0.125126 -0.071599 0.217123 13 -45 251
-0.169071 0.048561 0.227152 -153 203 -3
-0.006068 -0.120073 0.418157 1 -243 75
0.122575 -0.122951 -0.124093 -1 -255 -1
0.154745 -0.040736 -0.450265 139 93 -191
0.113513 -0.123039 -0.123509 -1 -255 -1
0.140002 0.075326 -0.093273 119 209 -85
0.118457 0.054897 0.446568 37 249 41
-0.044963 0.107178 0.280779 -9 239 89
-0.105597 0.099350 0.455903 7 -241 81
0.174124 -0.123225 -0.024334 -1 -255 -1
0.181448 0.003107 0.373496 239 61 63
0.143490 -0.098861 0.442477 65 -247 1
0.186634 -0.025374 0.380191 189 107 133
0.170002 -0.086620 -0.396865 17 -45 251
0.150741 0.032580 -0.175870 -173 99 159
0.165828 -0.123111 -0.131276 -1 -255 -1
0.113502 -0.122906 -0.079032 -1 -255 -1
-0.090547 -0.121920 -0.341989 -1 -255 -1
0.188819 0.011342 0.113070 243 75 1
-0.175991 -0.122912 -0.221324 -1 -255 -1
0.079301 -0.123004 0.055020 -1 -255 -1
-0.193842 -0.063452 0.103030 -255 -7 5
0.047754 0.060614 0.442104 5 255 13
-0.099931 0.098720 -0.066438 -29 227 -111
0.110819 -0.058472 0.292320 255 -1 1
0.179808 -0.095079 0.410230 209 -67 129
-0.097900 -0.094715 -0.472961 -23 249 -47
