ply
format ascii 1.0
element vertex 1206
property float x
property float y
property float z
property uchar red
property uchar green
property uchar blue
end_header
-0.169410 0.033444 -0.042556 -249 59 -5
-0.123932 -0.136371 0.411321 -1 -247 67
0.160926 0.075206 0.212497 1 -1 -255
0.160238 -0.157477 0.014933 -1 -255 -1
-0.195655 -0.051731 0.187051 -253 15 -21
0.043043 0.147621 0.289990 13 255 11
-0.082436 0.011052 -0.387057 -25 249 -45
-0.174536 0.004636 -0.284482 -41 249 -31
-0.197479 -0.037831 -0.324731 -1 -255 13
0.162888 -0.117867 0.381987 -1 -45 -251
-0.152543 0.083153 -0.033395 -235 97 3
-0.153547 0.081342 -0.001173 -237 95 -5
-0.183664 -0.079967 0.369021 -1 -123 -223
0.036361 0.137852 -0.054887 15 249 -57
0.199202 -0.066131 0.360141 -1 -159 -199
-0.177801 0.000929 0.425966 -213 15 139
0.140486 0.053083 0.428466 103 139 187
-0.111193 -0.157563 0.030770 -1 -255 -1
0.197361 -0.080618 0.203449 253 -29 -17
0.081671 0.144622 0.033663 23 253 -13
-0.180993 -0.151351 -0.116837 -255 17 3
-0.137658 0.120383 0.297326 -237 97 5
-0.084962 0.022462 -0.318144 -21 251 -39
0.191990 -0.076422 0.367302 -1 -123 -223
0.162732 0.057982 0.239905 249 53 9
-0.170580 -0.157298 -0.213527 -1 -255 -1
-0.200006 -0.024655 0.265669 -241 83 -23
0.151528 -0.136418 -0.462200 135 -21 -215
-0.190935 -0.078824 -0.127638 -237 91 -17
-0.162573 -0.103915 -0.455537 -125 -3 -223
0.106171 0.149954 0.334701 -255 1 -3
-0.132463 -0.104389 -0.469309 -91 -7 -239
-0.092576 -0.130286 -0.305381 -255 -1 -1
-0.136222 -0.157102 -0.105667 -1 -255 -1
-0.158588 -0.048237 0.466067 -101 -5 235
0.116781 0.116957 -0.085696 37 209 -141
0.047444 0.062364 0.452587 41 137 211
0.157043 0.074396 -0.121756 189 153 -77
0.175598 0.026792 -0.074456 247 61 -5
0.175889 0.000619 -0.316775 13 253 -27
-0.125646 -0.027709 -0.448593 -97 125 -199
0.181120 -0.116191 -0.195189 239 -87 -7
-0.133463 0.091071 0.403390 -101 141 187
0.033091 0.009888 -0.410591 11 251 -45
0.172103 -0.059187 -0.257880 -1 -169 -191
0.128642 -0.157196 -0.091420 -1 -255 -1
0.087887 -0.155328 0.222302 -1 -255 19
-0.196530 -0.048310 -0.232822 -249 13 57
-0.045918 0.013268 -0.385658 -13 251 -45
0.157266 -0.100309 -0.457903 123 1 -223
-0.191182 0.006524 0.104612 -243 -75 11
-0.097561 0.136553 -0.035322 -23 251 -33
0.160786 -0.090738 -0.463581 131 -3 -219
0.190225 -0.029589 -0.174361 233 -101 7
0.168690 -0.157090 0.063937 -1 -255 -1
-0.027513 0.143964 0.379550 -5 255 15
-0.110238 -0.000426 -0.423324 -71 237 -59
-0.035533 -0.134492 0.418134 -1 -247 67
-0.140610 0.111159 -0.083176 -125 193 -109
-0.049369 0.149566 0.167950 -13 255 3
0.116740 -0.157083 0.151468 -1 -255 1
-0.004401 -0.145195 0.365670 -1 -255 19
0.022825 -0.029754 0.470166 31 17 253
-0.167754 0.048181 0.100848 -247 63 1
0.099046 0.141865 0.349626 17 255 11
0.148331 0.108522 -0.072697 241 83 1
-0.003669 -0.157529 -0.131040 -1 -255 -1
0.044994 0.109983 -0.109952 23 207 -147
0.000681 -0.147501 0.333570 -1 -255 19
0.025370 0.004752 -0.437607 11 251 -47
-0.030028 -0.070905 0.497179 -25 131 217
-0.134227 0.115004 -0.082940 -47 207 -141
0.039492 -0.127452 0.443737 -1 -245 73
-0.152310 0.077538 -0.125432 -147 179 -105
0.199366 0.037552 -0.132496 -111 -1 229
0.092220 0.146189 0.075533 21 253 -13
0.010356 0.014953 0.475634 13 9 255
-0.003749 0.037108 -0.232429 -7 255 -17
0.141917 -0.037861 0.458355 79 111 215
-0.164550 0.058573 0.131339 -239 87 3
-0.006671 0.148436 0.023324 -9 255 -13
0.121563 -0.038327 0.302974 -1 -255 -9
0.121353 -0.157082 -0.070998 -1 -255 -1
0.191096 -0.083871 -0.145483 245 -71 -7
-0.021417 -0.157237 -0.114884 -1 -255 -1
0.137047 -0.002672 -0.388394 79 237 -49
-0.198999 -0.018198 0.293597 -243 77 -11
-0.023542 0.072516 -0.163948 -13 203 -155
0.000518 0.069423 0.453638 19 119 225
0.075864 -0.028584 0.471664 49 21 249
0.039464 -0.156992 -0.355426 -1 -255 -1
-0.079150 -0.014421 -0.462238 13 -255 -1
-0.176952 0.037866 0.296090 -237 91 -3
0.074544 -0.151055 0.278658 -1 -255 19
-0.146760 0.023995 -0.258591 -51 247 -37
0.034839 0.017870 -0.363444 11 251 -45
0.106636 -0.144103 -0.473029 -1 -247 -67
-0.158067 -0.137118 0.383992 -1 -1 -255
-0.092619 -0.126239 0.268820 -255 -1 -1
-0.051011 0.033644 -0.256674 -11 253 -31
0.137303 -0.005334 -0.401553 75 239 -45
0.003003 -0.148379 -0.456456 -1 -247 -67
-0.078554 -0.156466 0.208834 -1 -255 19
-0.113984 -0.157054 0.107518 -1 -255 -1
-0.183539 -0.107862 0.436469 -239 -17 87
-0.092470 -0.077056 0.306173 -255 -1 -1
-0.190697 0.008280 -0.014464 -233 105 -1
-0.157641 0.072161 0.028740 -239 89 -5
-0.201153 -0.030948 0.255025 -237 93 -17
0.024319 0.026236 -0.316729 7 251 -39
-0.118865 0.142881 -0.016657 255 1 -21
0.089045 0.029469 -0.268953 21 251 -37
-0.159368 0.004509 -0.316151 -67 245 -31
0.002126 0.131849 -0.079725 11 235 -99
0.011476 -0.065594 0.498882 13 -15 255
0.183975 0.022953 0.366954 233 101 21
0.022373 -0.157460 -0.354586 -1 -255 -1
-0.191555 -0.050858 -0.065124 -255 -19 -1
0.177528 -0.129721 0.438896 -1 -247 67
0.075798 0.144793 0.027345 17 255 -13
-0.077138 0.142864 0.350578 -15 255 11
-0.095864 0.139366 -0.014460 -25 251 -31
0.187557 -0.097374 -0.431264 233 -19 -103
0.018325 -0.157475 -0.080606 -1 -255 -1
-0.040210 -0.039946 0.474736 -1 235 101
0.039253 0.144974 0.346875 9 255 13
0.189227 -0.039692 -0.195538 253 1 -27
-0.055520 -0.151821 0.264612 -1 -255 19
-0.029083 0.143864 0.377669 -5 255 15
-0.147742 -0.142818 0.385470 -1 -253 37
0.003623 0.140314 -0.051518 9 247 -59
0.199577 -0.020215 0.311766 247 65 3
0.123166 -0.157527 -0.113369 -1 -255 -1
0.013483 0.151218 0.168519 7 255 3
-0.122037 -0.157128 -0.079267 -1 -255 -1
-0.014490 0.100350 -0.127591 -13 209 -145
-0.108349 -0.157283 -0.078134 -1 -255 -1
-0.140498 0.032495 0.443748 -93 105 213
0.186188 -0.015212 0.418907 -29 253 -15
0.099453 -0.157191 0.184378 -1 -255 -3
-0.047070 0.029233 -0.287565 -11 253 -37
0.199014 -0.018393 0.296850 243 77 -11
-0.019891 -0.041775 -0.483879 -255 17 7
-0.062781 0.149593 0.105657 -17 255 3
0.180507 -0.152792 0.115424 255 -5 1
-0.088349 0.146739 0.181446 -17 255 1
0.130868 0.032283 -0.212442 15 253 -19
-0.151061 0.004207 0.447131 -131 17 219
0.081112 -0.157184 -0.168027 -1 -255 -1
0.144584 0.110368 0.338687 233 99 27
-0.181074 -0.157148 -0.098503 -1 -255 -1
0.039604 -0.157184 0.187050 -1 -255 -3
0.159084 -0.041999 0.248696 -1 -247 61
0.189997 0.005157 -0.098559 231 109 -7
-0.117713 0.142882 0.271067 -15 255 7
-0.105894 -0.059237 0.484486 -65 -27 245
0.100695 0.033416 -0.226237 15 253 -17
0.169659 -0.051508 0.346937 -1 -185 -175
0.020524 -0.021287 0.474821 -1 37 253
-0.181412 0.027076 0.396287 -205 153 7
-0.184910 0.015243 -0.075433 -207 149 -11
0.192404 -0.114508 0.193513 251 -35 -21
0.120153 -0.008670 0.460183 51 19 249
0.010534 -0.157355 -0.020017 -1 -255 -1
0.183612 -0.107365 0.028709 241 -85 1
0.200887 -0.049738 0.356516 255 1 21
-0.139141 0.133391 0.100781 -233 103 3
-0.076936 -0.065139 0.490152 -43 -13 251
0.057809 -0.155612 0.215181 -1 -255 19
-0.188798 -0.054437 0.056040 -255 -11 5
-0.092576 -0.134224 0.326630 -255 -1 -1
-0.151587 0.100170 0.264711 -237 95 1
-0.192066 -0.067432 0.442218 -219 -19 131
-0.196340 -0.075634 0.185148 -255 -3 -17
-0.121554 -0.157286 0.141010 -1 -255 1
-0.025524 -0.146314 0.341515 -1 -255 19
-0.161507 0.066437 0.133154 -237 93 3
0.146786 -0.137222 0.410654 -1 -247 67
0.149208 0.001467 -0.352819 63 243 -39
0.024361 -0.157487 -0.204777 -1 -255 -1
-0.168773 0.046752 0.180750 1 255 -15
0.187510 -0.080150 -0.200906 203 153 17
0.118948 -0.060610 -0.256446 -1 -169 -191
0.163421 0.074735 0.076154 237 93 -3
0.022611 -0.101172 -0.491520 17 -253 -19
-0.031143 0.085901 0.440515 -29 135 215
0.135685 -0.117036 -0.413026 -1 -57 249
0.091659 -0.131209 -0.484536 55 1 -249
0.011031 -0.157441 0.004791 -1 -255 -1
0.139657 0.119888 0.352604 233 103 19
0.190059 -0.073182 -0.110593 237 93 -5
0.060868 -0.146227 0.348376 -1 -255 19
0.152603 0.080467 -0.080443 243 77 -5
0.127148 0.028860 -0.250437 29 251 -33
-0.094114 0.144662 0.284961 -17 255 11
-0.108319 -0.157360 0.184931 -1 -255 -3
-0.035632 0.150441 0.137946 -9 255 3
-0.190246 0.003657 -0.096601 -231 109 -7
-0.082560 0.070567 -0.157303 -33 201 -153
-0.149322 -0.030381 -0.437910 -117 125 -189
-0.190533 0.010025 0.157596 -255 5 7
-0.183254 -0.141238 0.150108 -247 -61 -19
0.075572 -0.112075 0.487733 25 -163 195
0.188780 0.013344 0.322342 233 101 -5
0.199395 -0.031209 0.358227 251 45 17
-0.045568 0.149546 0.194198 -13 255 3
0.099637 0.114842 0.401944 85 141 195
0.161244 0.059433 -0.015879 239 87 -7
0.176449 0.028631 -0.027918 11 253 -21
0.191856 0.000747 -0.100976 231 109 -7
0.061676 -0.157513 -0.037483 -1 -255 -1
0.191783 -0.048507 -0.044053 255 -17 -1
-0.051311 0.062509 -0.172990 -25 197 -159
-0.022634 -0.157489 -0.129964 -1 -255 -1
-0.185686 -0.131271 0.168817 -255 -1 -17
0.043357 0.068276 -0.166852 21 199 -159
-0.101972 0.135989 -0.038411 -27 251 -31
-0.161334 0.027377 -0.203252 -175 183 -37
-0.158413 0.084348 0.272626 -239 87 3
0.187042 -0.090480 -0.405616 -1 -83 241
0.095333 -0.101221 0.479914 255 -1 -1
-0.136129 0.130622 -0.020958 -185 173 -19
-0.159811 -0.087006 -0.404825 -1 -83 241
0.143605 0.107841 0.204589 233 101 1
0.185477 -0.103595 0.085945 247 -63 5
0.012953 -0.155059 0.224617 -1 -255 19
0.123963 -0.157310 0.038176 -1 -255 -1
-0.070462 0.144821 0.318138 -15 255 11
-0.016773 -0.029693 -0.473052 -1 255 -1
0.184940 -0.105848 0.060992 239 -87 -11
0.035990 0.121137 -0.094730 17 211 -143
0.185985 -0.135204 -0.218246 215 -65 121
0.174424 -0.077060 0.455583 193 -3 167
0.070643 -0.157479 0.005299 -1 -255 -1
-0.002313 -0.041241 -0.489191 -87 183 -153
-0.157082 0.078023 0.357152 -237 91 15
-0.182288 -0.126812 0.428709 -237 -83 49
-0.180731 -0.118630 0.438732 -223 -41 115
0.043839 0.132380 -0.072403 19 235 -97
-0.158844 0.005456 -0.304471 -75 241 -37
-0.174513 0.042091 0.162674 -49 249 -13
0.146650 -0.157569 -0.120417 -1 -255 -1
-0.010411 0.147657 0.006340 -9 255 -13
0.147440 0.095763 -0.008254 237 95 -5
0.054707 -0.155066 0.225159 -1 -255 19
0.118793 0.144083 0.175592 29 253 1
-0.186708 -0.071507 -0.191532 -251 -39 -29
-0.070555 -0.151629 0.273216 -1 -255 19
0.029131 -0.049928 -0.471413 39 71 -241
0.145711 -0.012011 0.449631 119 33 223
-0.051151 -0.157229 -0.118516 -1 -255 -1
-0.182023 -0.114894 -0.062046 -239 -91 1
0.092546 -0.080419 0.217846 255 -1 -1
0.178595 0.004724 -0.261333 211 141 -13
0.049627 -0.132745 -0.492103 31 -29 -251
0.184008 -0.139593 0.151176 247 -61 -19
0.192898 -0.091909 -0.406559 -1 -83 241
0.087218 -0.053802 0.470402 49 -9 251
-0.157596 -0.006114 -0.386143 -45 247 -41
-0.070859 0.141838 0.388107 -17 253 23
-0.003566 -0.024320 -0.477943 -45 231 99
0.100721 -0.156282 -0.427179 -1 -247 -67
0.108433 0.039886 0.453347 69 155 191
-0.092592 -0.083221 -0.328132 -255 -1 -1
-0.025887 0.142710 -0.030841 -13 253 -33
-0.092435 -0.113854 -0.365872 -255 -1 -1
0.098759 0.063626 0.438361 73 139 201
-0.159794 -0.005141 -0.376100 -45 247 -41
0.161107 -0.157615 0.003475 -1 -255 -1
0.172157 -0.012672 -0.399187 185 171 -45
0.022036 -0.156158 -0.427306 -1 -247 -67
0.137669 0.002680 -0.364638 131 211 -55
-0.149593 -0.157065 -0.222593 -1 -255 -1
-0.033153 -0.157192 -0.323650 -1 -255 -1
0.120181 -0.097442 0.377206 -1 -75 -243
0.022898 0.150763 0.177291 11 255 3
0.191523 -0.053929 -0.047826 255 -19 -1
-0.136426 0.134432 0.042055 -169 191 -9
0.190501 -0.049280 -0.146517 255 -19 -7
0.105373 -0.000841 -0.431833 61 239 -65
0.114800 -0.118291 -0.480905 63 -5 -247
0.151001 -0.054234 -0.385438 -1 -171 189
-0.054101 0.007601 -0.417661 -19 249 -47
0.094303 0.102010 0.413538 71 141 201
-0.180621 -0.031513 -0.412121 -197 113 -117
-0.164987 -0.132741 -0.453439 -159 -45 -193
0.051645 -0.156932 -0.343611 -1 -255 -1
-0.191116 -0.055359 -0.081330 -255 -19 -1
-0.113500 0.143034 0.280292 -39 251 9
-0.054350 -0.157128 -0.095203 -1 -255 -1
-0.133762 0.008625 -0.353690 -147 201 -61
0.111323 -0.105094 0.201827 -1 -67 247
-0.053292 0.041540 0.465172 -37 113 225
-0.139586 0.076096 0.412014 -103 141 187
-0.095316 0.131943 -0.061304 -25 247 -55
-0.154459 0.033805 -0.183885 -47 191 -161
0.192824 -0.115770 -0.417096 253 -37 -7
-0.060356 0.148225 0.257559 -15 255 1
0.026184 -0.157255 -0.117881 -1 -255 -1
0.115876 -0.078205 0.210602 -1 -89 239
-0.047370 0.001100 0.464837 -43 45 247
-0.192706 -0.006453 -0.146967 -243 77 -7
0.012314 -0.147479 0.328859 -1 -255 19
-0.104863 -0.090446 -0.483150 7 71 -245
-0.189441 -0.130568 -0.417494 -249 -57 -13
0.113648 -0.032173 -0.456877 125 89 -205
-0.178803 0.037154 0.213005 -229 113 3
-0.141275 -0.007444 -0.409114 -63 241 -57
0.155156 0.075717 -0.037152 243 77 -5
-0.180373 -0.145126 -0.008017 -255 11 1
0.032164 0.052870 -0.187720 23 195 -163
0.157334 -0.078671 0.465156 113 -3 229
-0.045774 -0.157309 -0.025764 -1 -255 -1
-0.163320 -0.045354 -0.371769 -1 -237 93
0.128693 -0.095611 0.477951 89 -15 239
-0.092543 -0.141107 -0.300429 -255 -1 -1
0.115463 -0.140311 -0.478179 97 -45 -231
-0.092854 -0.101218 0.302049 -255 -1 -1
-0.186356 0.010185 0.009431 -171 -187 33
0.139809 0.093321 -0.112524 59 201 -147
-0.030912 -0.157103 -0.174367 -1 -255 -1
0.038740 0.015412 0.474211 31 17 253
0.106222 -0.150820 -0.448106 -1 -247 -67
-0.154656 -0.151607 -0.442495 -1 -247 -67
-0.027564 -0.157523 0.104608 -1 -255 -1
0.072879 0.144599 0.322246 13 255 11
-0.030081 -0.108944 0.495024 -17 -163 195
-0.158024 0.066827 0.326752 -241 79 19
0.156237 0.080390 0.216707 1 1 255
0.052525 0.023098 -0.328272 13 251 -39
-0.067378 0.052312 0.455850 -41 135 213
-0.143764 0.016204 -0.301387 -173 179 -53
0.167937 0.024160 -0.187172 175 183 -37
-0.155983 0.077828 0.034392 -239 89 -5
-0.044054 -0.128848 0.442600 -1 -245 73
-0.125174 -0.157471 -0.052341 -1 -255 -1
-0.067056 -0.038061 -0.459624 -67 109 -221
-0.148727 0.093167 0.275233 -237 95 1
0.045770 0.102902 0.426668 39 137 211
-0.193654 -0.017716 -0.118924 -239 -91 9
0.114557 0.001938 -0.411565 71 237 -59
0.086655 0.021135 -0.322093 21 251 -39
0.093032 -0.142533 -0.361605 255 -1 -1
-0.185679 0.022544 0.190248 -231 109 3
-0.032803 -0.157184 -0.090737 -1 -255 -1
0.174233 -0.023621 -0.414302 197 113 -117
-0.184858 0.013900 -0.095604 -207 149 -11
0.130079 0.140585 0.081707 91 237 -3
0.180065 0.022703 -0.066792 209 145 -11
0.121591 -0.098468 -0.234504 -1 -75 -245
-0.163707 0.042048 -0.111765 -243 73 -7
-0.187787 -0.066663 -0.171169 -253 -37 -7
-0.118744 -0.157340 0.032796 -1 -255 -1
0.191311 0.002740 0.252816 247 65 5
-0.192005 -0.115179 -0.223335 -237 -21 89
0.186174 0.021235 0.352204 231 105 13
0.176305 0.004503 -0.284556 41 249 -31
0.161753 -0.000345 -0.343084 51 247 -37
-0.165817 0.053181 0.173737 -247 63 5
-0.180245 -0.144743 -0.109100 -255 9 1
-0.003358 0.148189 0.014305 -9 255 -13
0.012224 -0.139757 -0.487408 -1 -247 -67
-0.180813 -0.093416 -0.407058 -1 -83 241
-0.056446 0.033506 -0.254005 -11 253 -31
-0.092918 -0.134692 -0.293620 -255 -1 -1
0.021517 0.140747 -0.045092 13 253 -33
0.038606 -0.157558 -0.196686 -1 -255 -1
0.045610 -0.147321 0.337589 -1 -255 19
0.044431 0.042413 0.465924 25 117 225
0.186902 -0.035562 0.425342 241 65 55
-0.069095 0.149065 0.094924 -17 255 -13
0.051888 0.037850 -0.202259 23 195 -163
0.124370 0.142348 0.232399 85 241 3
-0.036452 -0.157580 -0.239785 -1 -255 -1
0.094044 -0.038176 -0.307128 -1 -255 -9
-0.163644 0.053260 0.241349 -247 65 7
-0.125957 0.142042 0.165356 -85 241 3
-0.061051 -0.157443 -0.133701 -1 -255 -1
-0.096587 0.139626 -0.011291 -25 251 -31
0.120138 -0.157223 0.077494 -1 -255 -1
0.195015 -0.099933 0.199201 251 -33 -21
0.117072 0.140199 0.357533 29 253 11
-0.029881 0.020403 -0.351784 -11 251 -45
0.027917 0.136922 -0.060618 13 247 -59
-0.115886 0.086797 0.415703 -87 139 195
0.135377 -0.099844 -0.469234 63 -225 -101
-0.079549 0.146298 0.272263 -19 255 11
-0.114952 -0.122858 -0.414901 -1 -57 249
0.202176 -0.037146 -0.326073 253 -27 1
-0.035636 0.056481 0.457933 -19 139 213
0.048828 -0.157023 0.183153 -1 -255 -3
-0.037780 -0.156942 -0.423249 -1 -247 -67
0.092510 -0.135073 0.316704 255 -1 -1
-0.031421 -0.156885 -0.369332 -1 -255 -1
-0.050842 0.032415 -0.264886 -11 253 -31
-0.053392 -0.157128 0.080226 -1 -255 -1
-0.071245 0.141082 0.400678 -15 253 23
0.053648 -0.133976 0.421628 -1 -247 67
0.190283 -0.050124 -0.161612 253 -25 -9
0.133695 0.130656 0.358953 223 123 19
-0.040782 0.102274 -0.121250 -19 207 -147
-0.174139 -0.058647 -0.447651 -77 211 -121
-0.184880 -0.014309 -0.323027 -225 117 -21
-0.120857 0.099415 0.404243 -101 141 187
-0.193793 -0.017077 -0.219819 -241 81 -21
0.157303 -0.000570 -0.350673 63 243 -39
0.164573 -0.157016 0.118199 -1 -255 -1
-0.085289 -0.145381 0.355745 -1 -255 19
0.139790 -0.157504 0.096427 -1 -255 -1
-0.122066 -0.097020 0.496607 -243 81 3
0.038523 -0.157054 -0.155539 -1 -255 -1
0.053255 0.020594 -0.342703 13 251 -39
-0.200438 -0.063814 -0.246807 -253 -33 3
-0.168982 0.005759 -0.284972 -55 247 -31
-0.196592 -0.024280 0.376461 -247 63 23
-0.179724 0.034297 0.208828 -229 113 3
0.051497 0.007225 -0.420741 19 249 -47
0.182258 -0.124541 0.116940 255 -13 -15
0.082010 -0.157134 0.126286 -1 -255 -1
-0.111022 -0.052050 0.228497 -1 -171 189
0.020640 0.020780 -0.350189 7 251 -39
-0.073521 -0.124284 0.454078 -1 -243 79
-0.191492 -0.034916 -0.150876 -255 3 -9
0.186016 -0.043417 0.334894 -1 -239 -87
-0.157087 -0.157607 0.132699 -1 -255 1
0.144838 0.009033 -0.324439 159 191 -61
0.001856 -0.058656 -0.496626 19 -87 -239
0.189219 -0.050598 0.011036 255 -9 1
-0.045215 -0.120196 0.468037 -1 -245 73
-0.043146 -0.153244 0.251544 -1 -255 19
-0.027350 0.012847 -0.397425 -11 251 -45
-0.181488 -0.073074 0.213193 -1 -125 223
-0.187878 0.013410 0.283612 -247 65 5
0.190417 -0.033461 -0.174915 255 3 -9
-0.191575 -0.027206 -0.114713 -253 33 -7
0.196321 -0.029058 -0.361904 175 183 -31
0.154210 0.090653 -0.093420 241 81 -5
-0.032300 0.026819 -0.312370 -11 251 -39
-0.058940 -0.157263 0.011063 -1 -255 -1
-0.155405 0.020081 0.442609 -115 67 217
0.096863 -0.055418 -0.472046 77 77 -231
0.190484 0.031838 -0.136808 -111 -1 229
-0.017550 -0.068156 -0.498737 11 255 -1
0.168865 0.006915 -0.274770 55 247 -31
-0.152533 0.096064 -0.088426 -241 81 -5
0.080656 0.012022 -0.377935 23 249 -45
0.013765 -0.157384 -0.184560 -1 -255 -1
0.082360 -0.154008 -0.437774 -1 -247 -67
0.193288 -0.087503 0.140876 111 -229 5
-0.184810 -0.108583 -0.434865 -211 -11 -143
0.176789 -0.129911 0.438352 -1 -247 67
-0.012161 0.084930 -0.148615 -13 203 -155
0.082124 -0.157386 -0.174112 -1 -255 -1
-0.093007 -0.095876 -0.354767 -255 -1 -1
-0.060929 0.081160 0.437954 -57 139 207
0.201668 -0.036874 0.241378 237 85 -39
-0.152899 -0.157228 -0.116160 -1 -255 -1
0.159854 0.020770 -0.234751 183 169 -53
-0.092918 -0.080946 -0.397166 -255 -1 -1
0.076555 -0.121182 0.464268 -1 -245 73
0.024132 -0.127430 0.444852 -1 -245 73
0.152069 -0.157037 0.144636 -1 -255 1
-0.131225 -0.054906 0.350682 -1 -169 -191
0.092558 -0.068335 0.336740 255 -1 -1
0.092530 -0.092898 0.334372 255 -1 -1
0.043379 0.064718 0.452042 41 137 211
0.150260 -0.038203 0.301922 -1 -255 -9
0.123646 -0.037788 0.283089 -1 -255 13
-0.127352 -0.036463 -0.453034 -79 113 -215
-0.017211 0.151199 0.083812 -9 255 -13
0.014084 0.020323 -0.357172 7 251 -45
0.115174 -0.040940 -0.460146 89 75 -227
0.191218 -0.090980 0.040452 135 -217 3
-0.147699 0.111740 0.084030 -235 99 -3
-0.108376 0.152858 0.270336 9 -255 -11
-0.015744 0.042885 0.467418 -1 121 225
0.072831 -0.157745 -0.310628 -1 -255 -1
-0.183868 -0.106352 0.044056 -241 -85 1
-0.192728 -0.064051 0.358441 -1 -159 -199
-0.004070 0.073935 0.451306 -25 135 215
0.193358 -0.014097 -0.082543 237 -91 11
0.070836 0.140203 0.406646 19 251 45
-0.193166 -0.087169 0.004218 -233 -105 5
0.146298 0.057746 0.420707 103 139 187
-0.024694 0.146923 0.324992 -7 255 13
-0.066075 0.140968 0.400825 -11 253 23
0.018812 0.151035 0.153863 11 255 3
0.154811 -0.157513 0.139821 -1 -255 1
-0.176549 -0.154130 -0.228048 -1 -1 -255
0.202766 -0.031698 -0.314952 253 -27 -1
-0.126911 -0.038755 -0.299721 -1 -253 -25
0.019049 -0.157099 -0.178935 -1 -255 -1
0.155099 -0.020135 0.449361 111 45 225
0.188070 -0.010139 0.402752 253 9 23
-0.181472 -0.042479 0.438995 -185 101 143
-0.102770 -0.038229 0.275990 -1 -255 13
0.097244 -0.157032 0.173110 -1 -255 1
-0.193408 -0.023037 -0.169263 -235 -101 7
-0.022883 0.143363 0.391993 -1 255 21
0.056016 0.074255 -0.156718 25 201 -155
0.003902 0.145934 0.349220 5 255 13
0.085765 0.091508 0.424019 71 141 201
-0.146384 -0.091908 -0.470677 -107 11 -231
0.022201 0.047951 -0.194804 13 195 -163
-0.050111 -0.157272 -0.061760 -1 -255 -1
-0.191117 -0.030591 -0.150164 -253 25 -7
0.060505 0.033264 -0.256044 17 253 -31
-0.066490 -0.157434 -0.357260 -1 -255 -1
-0.008028 0.151197 0.164728 -7 255 3
0.039608 0.146946 0.022332 15 255 -13
-0.074247 0.147872 0.084695 -17 255 -13
-0.092976 -0.110616 -0.486132 -67 -41 -243
-0.083128 0.084145 -0.139160 -31 205 -149
-0.050292 -0.143710 0.383438 -1 -255 19
0.149876 0.096946 0.345840 233 103 15
0.160125 -0.157101 -0.152156 -1 -255 -1
0.177467 -0.091746 0.205567 -1 -83 241
-0.005469 0.029028 -0.299292 -7 253 -37
-0.028505 -0.143973 0.375065 -1 -255 19
-0.019415 -0.054324 0.479300 -13 -7 255
0.004967 -0.114619 0.484533 -1 -239 91
0.167173 -0.156947 -0.420730 -1 -255 -1
-0.100412 -0.037810 -0.312056 -1 -255 -9
-0.141723 0.003446 -0.352263 -63 243 -39
-0.076317 0.147143 0.249420 -17 255 1
-0.167713 -0.157160 -0.051269 -1 -255 -1
0.186196 0.022600 0.182212 229 109 3
0.190196 -0.035585 -0.191547 255 3 -9
0.143736 0.105492 -0.062997 241 83 1
-0.122759 -0.126771 0.383558 -1 -35 -253
-0.193664 -0.009114 -0.158456 -243 77 -7
0.121603 -0.084373 -0.240230 -1 -99 -235
-0.123437 -0.157232 0.192784 -1 -255 -1
0.078109 -0.033960 -0.466169 -1 -255 -1
-0.137336 -0.155529 -0.428101 -1 -247 -67
0.111688 0.144990 0.194703 31 253 1
-0.094493 -0.038404 0.309863 -1 -255 -9
-0.191281 0.006369 -0.022708 -233 105 -1
0.172810 -0.157336 0.029907 -1 -255 -1
-0.010576 -0.157364 -0.156316 -1 -255 -1
0.151348 0.094052 0.339978 233 101 13
0.026793 0.144664 -0.013691 13 253 -33
-0.006044 -0.121548 0.465717 -1 -245 73
0.158516 0.066612 0.316355 241 83 21
-0.169922 -0.012482 -0.404068 -185 171 -45
0.179824 -0.128345 -0.095417 255 13 1
0.098784 -0.157210 -0.116245 -1 -255 -1
-0.057715 0.094530 0.430252 -55 139 207
-0.028487 0.135960 -0.066117 -13 247 -59
-0.085857 -0.157128 -0.134430 -1 -255 -1
0.161235 0.077176 0.048812 1 59 -247
0.085500 0.012959 -0.374721 25 249 -45
-0.009681 0.061643 -0.178949 -13 199 -159
0.007683 0.150528 0.233181 7 255 3
0.007514 -0.112690 -0.481634 -1 17 -255
-0.093011 -0.128269 0.438684 -1 -1 255
-0.092530 -0.104109 -0.274334 -255 -1 -1
-0.176828 -0.006367 -0.354500 -191 165 -31
-0.125110 0.141984 0.223619 -85 241 3
0.092710 -0.079262 0.274805 255 -1 -1
0.092544 -0.086532 -0.389972 255 -1 -1
-0.116137 0.144258 0.176522 -29 253 1
0.126163 0.142642 0.105634 93 237 1
0.041688 -0.156821 0.200452 -1 -255 19
-0.201122 -0.054376 -0.254966 -253 -25 -7
-0.139511 0.126202 0.005981 1 -253 27
0.047291 -0.082609 -0.491396 27 63 -245
0.143662 0.016721 0.448647 79 95 223
-0.189509 -0.002222 -0.182405 -229 113 -9
-0.049365 0.032261 -0.214625 11 197 161
-0.186713 -0.096922 0.427289 -249 -21 53
0.007780 0.064722 0.455688 19 119 225
0.039620 -0.144337 0.374705 -1 -255 19
-0.179202 0.034424 0.353792 -227 115 5
-0.180243 -0.139342 -0.029596 -255 7 1
-0.063804 0.031943 -0.261801 -17 253 -31
-0.149867 0.002369 -0.347432 -63 243 -39
0.092591 -0.150659 -0.266352 255 -1 -1
-0.121558 -0.069156 0.479796 -73 -7 245
0.045790 0.032344 -0.266909 11 253 -31
-0.053190 0.149772 0.116606 -13 255 3
-0.174512 -0.109619 0.453990 -215 -33 133
0.066000 0.107473 0.419595 55 139 207
0.111363 -0.115375 0.463058 -1 -255 3
-0.194739 -0.004021 -0.033836 -237 -93 11
0.162628 0.061706 0.369749 239 87 11
-0.188929 -0.067354 -0.021907 -245 67 -3
-0.080462 0.034118 -0.236251 -15 253 -17
-0.180265 -0.133805 -0.103218 -255 13 1
0.061333 -0.157568 0.099836 -1 -255 -1
0.136319 -0.150771 -0.445882 -1 -247 -67
0.156726 0.078760 0.363367 237 91 15
-0.196923 -0.071709 -0.232536 -247 -1 63
0.022882 -0.157465 -0.132068 -1 -255 -1
0.191430 -0.044762 -0.403889 205 65 -137
-0.157918 -0.107464 -0.458199 -125 -3 -223
0.049244 -0.150559 0.283548 -1 -255 19
-0.131637 0.058738 0.428781 -89 139 195
-0.093723 0.107691 -0.104425 -33 207 -145
0.125645 -0.142877 0.385581 -1 -253 37
0.166899 -0.157071 -0.209398 -1 -255 -1
0.084145 -0.157191 -0.050876 -1 -255 -1
0.192665 -0.050334 0.164017 251 37 -25
-0.002841 -0.157450 -0.363702 -1 -255 -1
0.111190 0.064957 0.432724 87 141 195
0.123968 0.141104 0.300148 39 251 7
-0.083086 0.009785 -0.393116 -25 249 -45
-0.167527 -0.069622 0.460724 -107 -19 231
0.092645 -0.152982 0.258031 -1 -255 19
0.161251 -0.079325 -0.243129 -1 -123 -223
0.183153 -0.118482 0.128129 247 -61 -13
-0.185453 -0.093208 0.432831 -249 -21 53
0.192133 0.004379 0.074035 243 -75 11
-0.145038 -0.157420 -0.182573 -1 -255 -1
-0.179653 0.036217 0.157725 -225 121 1
0.061680 -0.054526 0.473740 37 -9 253
0.177336 -0.131016 0.432956 -1 -247 67
0.092087 0.128546 0.397932 73 -99 223
-0.062764 -0.128602 -0.480948 -7 253 -29
0.154640 0.076052 0.326323 239 89 19
0.098634 0.137983 0.407055 43 245 53
-0.139664 -0.039728 0.320657 -1 -253 -33
-0.021912 -0.157414 -0.108799 -1 -255 -1
-0.134418 0.032506 -0.211109 -15 253 -19
0.072759 0.143869 0.347380 13 255 11
0.188253 -0.069653 -0.138046 253 -39 -7
0.194107 -0.043006 -0.365894 -1 -247 61
0.190037 0.012159 0.175891 255 5 7
-0.189999 -0.093949 -0.151835 -117 -227 -1
0.147477 -0.157539 -0.095112 -1 -255 -1
0.027080 -0.157282 -0.037342 -1 -255 -1
0.087878 0.144107 0.321476 17 255 11
0.046300 -0.134811 0.418517 -1 -247 67
0.093045 -0.066871 -0.392761 255 -1 -1
0.179829 -0.137086 0.042280 255 13 -5
-0.178953 0.036741 0.098394 -19 253 -19
-0.154135 0.096252 0.064843 -235 101 -3
-0.187395 -0.071422 -0.432970 -227 -15 -117
0.059085 -0.000012 -0.449860 19 247 -61
0.142451 0.120207 -0.051099 227 115 1
0.187349 -0.094601 0.096309 247 -63 5
0.202174 -0.036953 -0.347400 253 -27 1
0.051655 -0.138872 0.405544 -1 -247 67
0.112550 -0.054459 0.349888 -1 -185 -175
-0.196624 -0.066357 -0.393703 -1 -141 213
0.091125 -0.157128 0.119322 -1 -255 -1
0.063785 -0.131490 0.431630 -1 -247 67
-0.016384 0.005768 -0.436430 -7 251 -47
0.099883 -0.038445 0.308373 -1 -255 -9
0.189339 -0.026273 0.083851 255 -13 3
-0.189955 -0.027799 0.136151 -255 9 -9
0.184790 -0.028963 0.426224 213 59 129
-0.159766 0.064274 -0.009001 -239 89 -5
-0.080332 0.020658 -0.328669 -21 251 -39
0.166717 0.040442 -0.053278 241 85 -9
0.181234 -0.150163 -0.206768 255 19 -1
0.117480 0.009483 -0.370408 47 245 -49
-0.081939 -0.157492 -0.386107 -1 -255 -1
0.187121 -0.022249 -0.373986 143 209 -29
0.179514 -0.051524 0.228905 -1 -171 189
-0.023936 0.149327 0.269701 -9 255 13
0.052295 -0.157121 -0.150382 -1 -255 -1
0.156360 -0.157686 -0.188003 -1 -255 -1
-0.186974 0.009125 0.000292 -179 -181 21
-0.172465 -0.157047 0.105456 -1 -255 -1
-0.190307 0.010916 0.345810 -233 103 -7
-0.127658 0.011057 0.455182 -65 47 241
-0.179704 0.031888 0.266554 -35 93 -235
-0.011465 0.016963 -0.377224 -7 251 -45
0.033212 0.060807 0.455473 19 119 225
-0.159291 0.059362 -0.078439 -239 87 -7
-0.056992 0.149001 0.170433 -17 255 3
0.134930 0.065157 -0.151636 45 199 -153
0.078614 0.138849 -0.031026 21 253 -33
-0.036459 0.143400 -0.020591 -13 253 -33
0.059782 -0.155167 0.225316 -1 -255 19
0.185158 -0.001502 -0.236328 213 139 -23
-0.153178 -0.157079 0.175056 -1 -255 -3
0.197771 -0.029768 0.380683 239 63 63
0.179117 -0.121480 0.021495 255 9 1
0.127824 0.140048 0.046820 67 245 -13
0.171871 -0.038681 0.304275 -1 -255 -9
-0.110403 -0.020474 0.463959 -59 23 247
0.006973 -0.155466 0.220000 -1 -255 19
0.146409 -0.047278 -0.271349 -1 -211 -143
-0.133779 0.041075 -0.181657 -49 193 -161
-0.179874 -0.133326 -0.032558 -255 7 1
-0.173140 -0.157496 -0.049333 -1 -255 -1
-0.120838 -0.037738 0.287751 -1 -255 13
-0.124950 0.101536 -0.105370 -39 205 -147
0.132238 0.135910 0.006652 99 235 -15
-0.156931 -0.108013 0.200730 -1 -67 247
-0.091284 0.033433 -0.200484 -37 179 -177
-0.098444 -0.100760 0.202675 -1 -67 247
-0.062050 -0.148581 0.309616 -1 -255 19
0.091052 0.006709 -0.404176 25 249 -45
-0.180484 -0.002459 -0.290722 -203 155 -21
0.110680 0.001676 -0.414967 53 245 -51
-0.019464 0.148805 0.035151 -9 255 -13
-0.134541 -0.145796 -0.464143 -1 -247 -67
0.151051 0.091086 0.174041 233 103 3
0.194464 -0.090714 -0.237600 -1 -99 -235
-0.122535 -0.000308 -0.407024 -115 219 -65
-0.019398 0.036602 -0.235128 -5 255 -17
-0.035724 0.055617 0.458325 -19 139 213
-0.023731 -0.156962 -0.302006 -1 -255 -1
0.136858 -0.124728 -0.415039 -1 -57 249
0.198231 -0.015104 0.314848 247 65 3
-0.144461 0.032858 -0.187755 -49 193 -161
0.089825 0.031533 0.461044 59 49 243
0.145600 0.077169 0.407590 103 141 187
0.189051 -0.010799 0.128241 255 -3 -7
-0.091328 0.045155 -0.186747 -35 193 -163
-0.072228 0.028765 -0.280420 -19 251 -37
0.073326 0.097295 0.423672 55 139 207
0.040091 -0.141146 0.394681 -1 -247 67
0.068857 -0.157317 0.178943 -1 -255 -3
0.162481 -0.147984 0.194406 -1 -11 255
0.180112 -0.145321 -0.052400 255 9 1
0.196765 -0.029496 -0.363123 175 183 -31
-0.092934 -0.126077 -0.280863 -255 -1 -1
0.035967 -0.135954 0.413254 -1 -247 67
-0.034617 -0.136155 -0.492863 -33 -43 -249
-0.098381 -0.094246 0.491187 83 241 3
-0.029853 0.029020 -0.295373 -11 253 -37
0.180766 -0.148668 -0.173982 255 17 -1
0.189462 -0.010032 0.086075 255 -7 5
-0.183335 -0.108898 -0.161346 -237 -91 -3
0.136549 -0.157128 0.005253 -1 -255 -1
-0.088900 -0.157176 -0.368738 -1 -255 -1
0.136308 0.127213 0.111607 233 103 3
-0.190579 -0.016042 -0.009429 -253 33 5
0.194545 -0.076988 0.166593 253 -29 -25
0.005421 0.023280 0.475028 7 45 251
0.092752 -0.067523 0.269491 255 -1 -1
0.152741 0.099104 0.212715 235 101 3
-0.026978 0.149262 0.266503 -9 255 13
0.090908 -0.157160 0.184840 -1 -255 -3
0.092841 -0.128235 0.299716 255 -1 -1
0.079910 0.026062 -0.297339 21 251 -37
-0.147347 0.100724 0.122363 -233 103 3
0.120638 -0.079935 -0.478589 49 163 -189
-0.186310 -0.041409 0.431064 -211 73 123
0.159011 -0.130497 0.434704 -1 -247 67
-0.189474 -0.033668 0.050139 -255 -11 5
0.030657 0.081072 -0.151416 21 201 -155
-0.191609 -0.000734 -0.119683 -229 113 -9
0.005419 0.011950 0.476217 13 29 253
-0.060238 0.142644 -0.014945 -21 253 -33
0.019285 -0.157266 0.097347 -1 -255 -1
0.018712 -0.148079 -0.455631 -1 -247 -67
-0.101100 0.067184 -0.157669 -37 201 -153
-0.113691 0.104262 -0.104881 -39 205 -145
0.191868 -0.075904 0.114883 249 -51 -7
0.168956 0.048845 0.328805 43 251 -7
0.008478 -0.153564 0.243469 -1 -255 19
-0.083905 0.031293 -0.258441 -19 253 -31
-0.163252 -0.157009 0.152564 -1 -255 1
-0.004305 -0.157275 -0.178647 -1 -255 -1
-0.189284 -0.008040 0.093179 -255 -7 5
-0.137595 0.134670 0.276891 -169 191 -3
0.189276 -0.033889 0.074555 255 -13 3
0.011714 -0.157498 -0.249896 -1 -255 -1
0.059346 -0.156973 -0.243037 -1 -255 -1
-0.072691 0.147966 0.233487 -15 255 1
0.032284 -0.141306 -0.481897 -1 -247 -67
0.037751 0.149039 0.057594 11 255 -13
-0.057056 0.146425 0.034480 -15 255 -13
0.192894 -0.002555 0.010791 231 -107 15
-0.004555 0.142952 0.390517 -1 255 21
-0.186054 -0.142900 0.192316 -243 -71 -33
-0.063468 -0.134681 -0.490067 -31 -25 -253
0.042597 0.148401 0.271687 13 255 11
0.071044 0.074456 0.440178 57 139 207
0.167932 0.052835 0.320473 1 255 -7
0.110873 0.144717 0.218183 31 253 1
-0.030050 0.150826 0.092221 -11 255 -13
-0.171782 0.047323 0.338602 -201 157 9
-0.187179 -0.070171 -0.166135 -253 -37 -7
0.100508 0.144018 0.053920 27 253 -13
0.040597 -0.157448 -0.048112 -1 -255 -1
-0.146652 -0.089980 0.373582 -1 -99 -235
0.152377 -0.073927 -0.463140 61 181 -169
0.084495 0.146643 0.260665 17 255 1
0.034334 -0.115983 0.482377 -1 -239 91
-0.123374 0.140802 0.322125 -39 251 7
0.139628 0.131802 0.078375 235 99 -3
0.092974 -0.105659 -0.357964 255 -1 -1
0.130762 -0.157251 -0.086099 -1 -255 -1
0.015355 -0.157131 -0.040579 -1 -255 -1
-0.144606 0.106590 0.172307 -233 103 3
-0.197070 -0.088717 0.204638 -253 -33 -19
-0.021328 0.141713 0.408416 -1 255 19
0.092992 -0.088553 -0.340333 255 -1 -1
-0.013729 0.142844 0.394323 -1 255 21
0.155549 -0.043377 -0.366283 -1 -247 61
0.152237 0.080556 -0.084843 243 77 -5
-0.105648 0.144231 0.278315 -21 253 9
-0.160823 -0.152952 0.193911 -1 -11 255
-0.189926 -0.062937 -0.058812 -249 -59 1
0.115475 0.016861 -0.333268 29 251 -41
0.115214 0.155584 0.172718 255 1 5
0.193328 -0.074613 -0.399545 -1 -141 213
0.015955 0.001099 -0.457125 7 247 -61
0.036912 -0.137233 0.407827 -1 -247 67
-0.148214 0.031147 -0.204370 -57 247 -25
0.164640 0.042454 -0.083161 241 85 -9
-0.059483 0.146019 0.029188 -19 253 -13
0.098386 0.009014 -0.388666 29 249 -47
0.182670 -0.001355 -0.263481 211 141 -13
0.123759 -0.157385 -0.040143 -1 -255 -1
-0.160379 0.016706 -0.243711 -183 169 -53
-0.012044 -0.157202 0.129176 -1 -255 1
-0.007376 0.036591 -0.209343 -15 187 -173
0.182840 -0.085829 -0.404515 -1 -83 241
-0.135517 0.133695 0.010435 -173 187 -17
0.065237 0.145756 0.302900 15 255 11
-0.022835 -0.002539 0.471744 -1 37 253
-0.172739 0.001773 -0.313269 -51 247 -29
-0.119088 0.142005 0.054275 -31 253 -13
0.101510 -0.115347 0.480129 -1 255 -1
-0.141723 0.114105 0.353109 -233 103 19
0.142069 -0.061921 0.473304 97 -7 235
0.106185 -0.129871 0.383458 -1 -35 -253
-0.103921 0.011702 -0.366634 -31 249 -47
0.144496 -0.157383 -0.072534 -1 -255 -1
0.107035 -0.115311 0.465382 -1 -255 3
-0.091025 -0.157518 -0.188714 -1 -255 -1
0.177636 -0.077820 0.452350 193 -3 167
-0.020770 -0.157353 -0.076781 -1 -255 -1
0.105451 -0.149618 -0.450427 -1 -247 -67
-0.128729 -0.121361 -0.229335 -1 -45 -251
-0.103734 0.124577 0.393176 -85 141 195
0.050301 -0.157399 -0.084783 -1 -255 -1
0.053106 -0.157466 -0.146071 -1 -255 -1
-0.161793 -0.039564 -0.348364 -1 -253 25
0.128131 0.072405 -0.144243 45 199 -153
-0.032620 -0.157432 0.062922 -1 -255 -1
-0.093542 0.056324 0.446023 -73 139 201
0.084491 -0.157286 -0.173875 -1 -255 -1
0.184857 -0.108244 0.201117 -1 -67 247
0.190656 -0.061508 0.109293 249 57 -11
0.150014 0.089407 0.331619 1 -99 -235
0.138856 0.103100 -0.099020 53 203 -143
-0.086097 -0.141429 -0.480511 -1 -247 -67
0.193786 -0.022082 0.387094 235 87 43
-0.141008 -0.157110 0.160737 -1 -255 1
0.097318 -0.157368 0.037532 -1 -255 -1
-0.171024 0.021643 -0.181979 -217 129 -41
-0.149338 0.011388 -0.299571 -173 179 -53
0.074909 -0.157040 -0.414711 -1 -255 -1
-0.023596 -0.157482 -0.048894 -1 -255 -1
0.073840 0.131970 -0.067267 23 237 -93
-0.009526 -0.052079 -0.493520 -1 99 -235
0.112444 0.000061 -0.417458 71 237 -59
0.127308 0.140987 0.212764 85 241 3
-0.022128 -0.157060 -0.224982 -1 -255 -1
-0.076691 -0.142435 0.388931 -1 -253 37
-0.000698 0.119245 -0.101253 -13 211 -141
-0.182321 -0.050829 0.229954 -1 -213 139
-0.151983 -0.074490 -0.464162 -61 181 -169
0.187146 -0.101505 0.119213 249 -57 -11
-0.079574 -0.157626 -0.259980 -1 -255 -1
0.189649 -0.000303 0.171765 255 15 -3
-0.045884 0.026447 -0.309261 -13 251 -39
0.013913 0.121186 -0.096737 11 211 -141
-0.189905 0.011104 0.178621 -255 5 7
0.035572 -0.157430 -0.337562 -1 -255 -1
0.194531 -0.039083 0.398326 225 99 67
0.144896 0.104638 0.248709 237 95 1
0.154005 -0.108422 -0.411112 -1 -67 247
-0.040611 -0.157211 0.094923 -1 -255 -1
0.070327 0.135803 -0.054003 21 247 -57
0.042715 0.134861 0.418657 5 -243 79
0.035284 0.147038 0.017323 13 255 -13
-0.190620 -0.025775 0.027025 -255 1 7
-0.087401 -0.116109 0.480930 -1 -239 91
0.061066 0.148483 0.189619 17 255 3
0.114967 0.156290 0.038794 11 255 -9
-0.165666 0.055105 0.137137 -239 87 3
0.152398 -0.124584 0.452684 -1 -243 79
-0.193115 -0.096776 0.203823 -1 -83 241
0.167078 -0.060875 -0.389469 -1 -141 213
0.191817 -0.007628 -0.191790 245 69 -5
-0.146724 0.113030 0.253778 -237 95 -9
0.003583 -0.157422 -0.014313 -1 -255 -1
0.092711 -0.112100 0.220010 255 -1 -1
0.148921 0.097837 0.359069 233 103 11
-0.027634 -0.157194 -0.375428 -1 -255 -1
0.189065 -0.005481 0.064663 255 17 -1
-0.059719 0.149099 0.156131 -17 255 3
0.166689 0.036543 -0.095847 243 75 -9
0.032635 0.132181 0.411394 15 137 213
-0.189107 -0.042128 0.061457 -255 -11 5
0.191338 -0.085183 -0.144629 245 -71 -7
-0.191825 -0.080927 0.032128 -249 -51 5
0.098447 -0.042812 0.468184 49 -9 251
0.191572 0.003335 0.078201 243 -75 11
0.188197 0.013758 0.267461 239 87 7
0.108196 -0.157024 -0.170793 -1 -255 -1
0.140742 -0.157204 -0.116465 -1 -255 -1
-0.032693 0.113664 0.422009 -39 139 211
0.190661 -0.084746 -0.152353 245 -71 -7
-0.177465 -0.155548 -0.227728 -1 -1 -255
0.093003 -0.104064 -0.364938 255 -1 -1
-0.153711 0.084604 0.198243 -237 93 5
-0.177585 -0.020415 -0.404895 -189 161 -61
-0.135817 0.098082 0.396760 -101 139 187
0.180089 -0.157527 -0.134612 -1 -255 -1
-0.024953 -0.157456 0.125525 -1 -255 -1
0.028160 0.151063 0.132814 11 255 3
-0.191706 0.007269 0.325655 -233 103 -7
-0.188631 -0.060734 0.046138 -255 -9 1
0.044165 0.142064 0.396818 7 253 23
0.201680 -0.029909 0.316941 249 59 11
0.176791 -0.005374 -0.342403 191 165 -31
-0.096024 -0.157354 -0.212540 -1 -255 -1
-0.129969 0.013933 -0.336913 -51 245 -47
0.180490 -0.156477 -0.052931 255 9 1
0.075612 0.133673 0.409044 17 -243 73
0.180972 -0.146826 0.087828 255 -5 1
0.105686 -0.157392 0.007312 -1 -255 -1
0.027600 -0.145863 0.348885 -1 -255 19
-0.077027 0.011365 -0.388209 -23 249 -45
-0.179922 -0.120516 -0.036387 -239 -91 1
0.184531 -0.056888 -0.259612 -1 -169 -191
-0.085334 0.147252 0.217666 -17 255 1
0.189523 -0.001718 0.143580 255 15 -3
0.189312 -0.048750 0.037851 255 -9 1
0.142756 0.112953 0.344773 233 103 15
0.000461 0.024217 -0.334290 7 251 -39
0.164181 -0.050455 -0.439827 87 189 -147
-0.138782 0.113846 0.379033 -201 133 83
0.121545 -0.101333 -0.479556 79 -23 -241
0.180034 -0.137956 -0.164666 255 19 -1
0.160328 -0.157340 0.081117 -1 -255 -1
-0.075187 -0.127927 0.443917 -1 -245 73
0.009311 -0.157391 0.080270 -1 -255 -1
0.026719 -0.157460 -0.410361 -1 -255 -1
0.020834 0.150581 0.236999 11 255 3
0.061957 -0.156230 -0.426877 -1 -247 -67
0.019316 0.144148 0.371571 5 255 15
0.186826 -0.052420 -0.416044 97 229 -55
0.027793 -0.132307 0.426347 -1 -247 67
0.183176 -0.140449 0.194444 -1 -41 251
0.043557 0.082848 0.440095 39 137 211
-0.180138 -0.145624 -0.059836 -255 9 1
-0.119268 -0.142735 -0.476349 -95 -33 -235
-0.187283 -0.062012 -0.194177 -251 -25 -33
-0.054509 0.149093 0.221361 -13 255 3
0.167186 -0.046011 -0.435198 135 99 -193
0.067759 -0.130613 0.433090 -1 -247 67
-0.050482 0.106896 0.423817 -39 137 211
0.090062 -0.157168 0.129693 -1 -255 1
0.159528 0.064120 0.302387 241 81 -3
-0.201943 -0.043432 0.240111 -255 -17 -1
0.187194 -0.138721 0.188159 247 -59 -19
0.191091 -0.009219 -0.209029 229 109 -19
0.185361 -0.005700 -0.262536 225 119 -15
-0.080095 0.142152 -0.004103 -23 251 -33
-0.189109 0.002239 0.381943 -249 35 43
-0.054310 0.126285 0.409180 -55 139 207
-0.147243 0.100050 0.368560 -233 103 11
0.083397 0.135833 -0.047195 25 247 -55
0.157713 0.074316 0.184221 237 93 3
-0.003883 0.041269 0.468398 -5 127 221
0.121698 -0.103958 0.488404 255 -3 3
-0.151803 0.088412 0.249056 -233 101 3
0.165711 -0.151681 0.193984 -1 -11 255
0.190146 -0.072670 0.427860 249 -15 55
0.191941 -0.050039 -0.041968 255 -17 -1
0.133181 -0.091265 -0.476863 85 -11 -241
0.043542 0.147750 0.293303 13 255 11
0.000812 -0.063792 0.499422 13 -15 255
0.019829 -0.044787 -0.487963 249 -49 -21
-0.070777 -0.148109 0.322614 -1 -255 19
0.179168 -0.157025 -0.138839 -1 -255 -1
-0.105129 -0.101729 -0.484914 11 9 -255
-0.151117 -0.108228 0.467789 -183 -1 179
0.200803 -0.024904 0.297085 245 67 -1
-0.187185 -0.138132 -0.421110 -245 -71 -17
0.166693 0.011732 -0.243981 105 231 -31
-0.057489 -0.142728 -0.475709 -1 -247 -67
0.175853 0.029644 0.417367 231 83 69
-0.181439 -0.157151 -0.114173 -255 17 3
0.110230 0.150824 0.332864 7 253 39
-0.016789 0.151867 0.097375 -7 255 3
-0.192019 -0.042976 -0.088915 -255 -19 -1
-0.011804 -0.151305 -0.445039 -1 -247 -67
0.168604 0.044826 0.130612 247 63 5
0.066226 -0.152254 0.264086 -1 -255 19
0.144393 -0.068632 -0.464951 103 55 -227
-0.143652 -0.099331 0.472972 -89 -15 239
0.013941 0.145969 0.341855 7 255 13
-0.189172 -0.039356 -0.197851 -253 1 -27
-0.082906 -0.111083 -0.477894 205 55 -141
-0.092591 -0.146943 -0.235874 -255 -1 -1
-0.108943 -0.061109 -0.470850 -69 151 -195
0.050979 0.033894 -0.206834 25 187 -171
-0.087911 -0.157401 -0.029377 -1 -255 -1
-0.173285 -0.084251 -0.403911 -1 -91 237
-0.087711 -0.157342 -0.008774 -1 -255 -1
-0.006516 0.124383 0.418548 -23 135 215
0.110326 0.152022 0.320785 11 251 39
-0.189507 -0.067084 -0.109770 -253 -39 3
-0.148746 -0.146933 -0.462194 -129 -37 -217
-0.180448 -0.153132 0.033190 -255 11 1
-0.056367 0.095338 0.429756 -55 139 207
-0.083087 -0.155304 -0.428903 -1 -247 -67
-0.188022 -0.116139 0.381908 -1 -45 -251
0.010035 -0.149147 0.302951 -1 -255 19
-0.092846 -0.121400 0.222880 -255 -1 -1
-0.050088 0.108060 0.423087 -39 137 211
-0.178896 -0.099762 -0.234051 -1 -75 -245
0.114955 -0.157270 0.060007 -1 -255 -1
-0.191558 -0.063529 -0.213553 -149 89 187
0.193233 -0.018243 -0.276447 197 163 -1
0.002969 -0.145520 0.358021 -1 -255 19
-0.180888 -0.149015 0.120135 -255 -21 -7
0.118827 -0.093869 0.489141 -1 -255 -1
-0.061765 0.144740 0.004535 -19 253 -13
0.092491 -0.101454 -0.279513 255 -1 -1
-0.124399 -0.127711 0.438262 -1 -1 255
0.174441 0.006243 -0.269637 33 251 -29
0.021219 -0.111503 0.493971 -1 -237 95
0.052164 0.012034 -0.391031 19 251 -45
0.154853 -0.142054 0.392171 -1 -247 67
0.186723 0.005992 -0.152604 229 111 -11
0.193231 -0.080289 -0.045270 245 -69 1
-0.142898 0.020663 -0.283776 -47 247 -41
-0.092760 -0.070481 0.244334 -255 -1 -1
-0.002797 -0.151355 0.276223 -1 -255 19
0.016076 0.097167 -0.131634 13 205 -151
0.193512 0.002508 0.015723 243 75 -1
-0.189999 0.010137 0.212816 -255 13 -9
0.076836 -0.157354 -0.059311 -1 -255 -1
-0.124657 -0.063687 0.358100 -1 -159 -199
-0.183154 -0.151015 0.182364 -245 -73 -1
0.157667 -0.038721 -0.343641 -1 -253 25
-0.126014 -0.157200 0.097823 -1 -255 -1
0.004529 0.140185 -0.052029 11 249 -59
0.170197 -0.032478 -0.425235 121 125 -185
-0.021519 -0.157215 -0.011449 -1 -255 -1
0.186251 -0.073241 -0.185124 253 -39 -7
0.104410 0.016012 -0.343218 31 249 -47
-0.069613 -0.157425 -0.232750 -1 -255 -1
0.193464 -0.007469 -0.133320 243 77 -7
-0.095049 0.107473 -0.104313 -33 205 -147
0.087891 0.055443 0.448627 57 137 207
0.027513 0.009755 -0.410756 11 251 -45
0.040094 0.144530 0.355131 9 255 13
-0.075383 -0.062841 -0.485987 99 235 -1
-0.060028 -0.145462 0.353831 -1 -255 19
-0.188035 -0.097251 -0.138993 -245 -71 -5
0.136550 0.129385 0.046990 -15 -253 17
0.090079 0.133875 -0.054146 25 247 -55
0.148812 0.095604 0.206563 235 101 3
-0.181163 0.021265 -0.066448 -209 145 -11
-0.104065 0.143288 0.049180 -27 253 -13
0.080537 0.028767 -0.278193 19 251 -37
-0.003227 -0.015995 0.473876 1 37 253
-0.148316 0.094665 0.311194 -237 95 1
0.193119 -0.038399 -0.339537 -1 -255 13
0.068165 -0.157028 -0.183022 -1 -255 -1
-0.202399 -0.033961 -0.329686 -253 -27 1
-0.089148 -0.036271 0.470044 -49 21 249
0.190143 -0.024717 0.147095 255 9 -9
0.187334 0.013278 0.286260 247 65 5
0.005778 0.148293 0.305978 5 255 13
0.092712 -0.040936 0.313276 255 -1 -1
-0.004512 -0.136791 0.413267 -1 -247 67
-0.048646 -0.157198 -0.387996 -1 -255 -1
-0.167413 0.050556 0.091121 -239 87 -1
-0.161808 0.053586 0.408386 -191 119 119
-0.152444 0.086944 0.233283 -239 87 3
0.112478 0.155573 0.090991 -255 -1 -5
-0.170552 0.047263 0.250556 -245 69 7
-0.030273 0.034917 -0.252397 -11 253 -31
0.064622 -0.142175 0.390271 -1 -247 67
-0.133998 -0.128603 0.383643 -1 -35 -253
-0.138890 0.103457 -0.098006 -137 187 -107
-0.199977 -0.060719 0.357349 -255 -17 1
0.020379 -0.157003 -0.291325 -1 -255 -1
-0.167137 0.012591 -0.237860 -105 231 -31
-0.125101 -0.133290 0.425572 -1 -247 67
0.194719 -0.097822 0.380656 253 -33 19
0.117725 0.011225 0.457791 65 49 241
0.183325 0.024059 0.309065 213 139 -5
-0.011186 -0.089039 -0.500064 -1 19 -255
-0.035100 -0.153540 -0.436190 -1 -247 -67
-0.113756 0.019420 -0.317243 -29 251 -41
-0.018224 0.151069 0.179364 -7 255 3
0.076293 0.001552 -0.435655 27 249 -49
0.152399 -0.107278 -0.462859 89 -113 -211
-0.154717 -0.009697 -0.402898 -39 245 -57
0.115804 0.096236 -0.115361 39 205 -145
0.106446 -0.042986 0.245064 -1 -247 61
0.187870 -0.096023 0.017571 241 -85 1
0.013499 -0.157578 -0.179705 -1 -255 -1
-0.036413 0.149722 0.254296 -9 255 3
-0.141111 -0.157619 0.129849 -1 -255 1
-0.112784 -0.096240 0.376188 -1 -99 -235
0.097840 -0.098635 -0.485717 91 -31 -237
-0.190436 -0.009134 0.004429 -237 -93 15
0.191440 -0.025699 -0.111817 253 33 -3
0.188989 -0.037379 0.092838 255 -13 3
0.191769 -0.038787 -0.013628 255 -17 11
-0.131714 -0.157304 -0.088436 -1 -255 -1
0.164982 0.052932 0.330351 1 255 -3
-0.089997 0.120613 0.402010 -71 141 201
0.092944 -0.061657 -0.382646 255 -1 -1
-0.092445 -0.087991 -0.341646 -255 -1 -1
0.179935 -0.120042 -0.100515 239 -91 1
0.013371 0.150934 0.164875 7 255 3
0.158249 -0.048491 0.466323 99 -5 235
-0.189429 0.008774 -0.057917 -231 107 -7
0.087562 -0.148372 -0.456550 -1 -247 -67
-0.191973 -0.026397 -0.093296 -253 27 -3
0.080799 0.147042 0.072261 23 253 -13
0.188541 -0.062576 0.007817 255 -9 1
0.100363 -0.143537 -0.473011 -1 -247 -67
0.175459 0.006221 -0.270493 33 251 -29
-0.191981 -0.059335 0.139139 -251 41 -15
0.092464 -0.090498 0.288045 255 -1 -1
0.059202 -0.065427 -0.490334 -27 253 -1
-0.189200 -0.034742 0.081120 -255 -13 3
-0.037967 0.116622 0.419659 -39 139 211
-0.033321 -0.099512 0.495698 -31 -35 251
0.091929 -0.128093 0.438236 -1 -1 255
0.122719 0.142216 0.271830 39 251 7
-0.132389 0.139448 0.073539 -177 183 -3
0.035212 -0.157197 -0.038893 -1 -255 -1
-0.157869 -0.083351 -0.464638 -127 15 -221
0.051335 0.146537 0.305268 13 255 11
-0.154503 0.077638 -0.019011 -237 95 -5
-0.164390 0.067052 0.270490 -241 83 3
-0.175126 -0.157102 -0.220550 -1 -255 -1
-0.160956 -0.157201 0.019815 -1 -255 -1
-0.030362 -0.145411 0.356038 -1 -255 19
-0.032010 -0.007685 0.472481 -1 37 253
-0.098188 -0.157126 -0.140274 -1 -255 -1
-0.146716 0.089617 0.395143 -183 129 123
0.025390 -0.145794 -0.464110 -1 -247 -67
0.112721 0.076409 0.424296 87 141 195
-0.201442 -0.048585 -0.268010 -253 -27 -5
-0.180048 -0.038005 0.302492 -1 -255 -9
0.063092 -0.157163 0.036030 -1 -255 -1
-0.201805 -0.045796 0.340707 -255 -17 1
-0.101537 0.139365 0.392471 -21 253 21
0.157739 0.068647 -0.028082 239 87 -7
0.122749 -0.126185 -0.415635 -1 -57 249
0.179625 -0.122422 -0.056017 255 7 -1
-0.157239 0.077915 0.109493 -237 93 -3
-0.125100 0.140821 0.050987 -67 245 -13
-0.080856 0.028192 -0.282244 -19 251 -37
-0.062427 0.128679 -0.077508 -23 235 -95
-0.126424 0.140334 0.313173 -39 251 7
0.092749 -0.127683 -0.252382 255 -1 -1
-0.171821 0.030324 -0.050791 1 255 -19
0.184639 0.026186 0.105882 217 133 -3
0.145849 -0.026342 0.453228 87 31 237
-0.188048 0.011502 0.392242 -255 13 15
-0.113475 -0.032787 0.463819 -59 23 247
0.129019 0.005337 -0.376251 131 211 -55
0.110238 -0.064329 -0.472371 43 187 -167
-0.124659 0.139914 0.331604 -39 251 7
-0.127028 -0.157553 0.098538 -1 -255 -1
-0.112315 0.157280 0.184211 -21 255 1
-0.092637 -0.127590 0.217017 -255 -1 -1
-0.022260 0.080651 0.445071 -29 135 215
-0.163875 0.058669 0.195646 -239 87 3
0.195838 -0.023329 0.233246 247 53 -35
-0.073711 -0.157215 0.052740 -1 -255 -1
0.138275 0.106182 -0.094305 137 187 -107
0.137572 0.000096 -0.373714 79 237 -49
0.202068 -0.035480 -0.315088 253 -27 -1
0.117477 0.156699 0.047145 11 255 -9
0.046400 0.146995 0.030487 15 255 -13
-0.015428 0.017263 -0.370803 -7 251 -45
-0.092507 -0.135902 0.373576 -255 -1 -1
-0.049459 0.149439 0.168950 -13 255 3
0.145821 0.030059 -0.192099 -35 247 49
0.188855 -0.048913 0.051371 255 -11 5
-0.081644 0.145867 0.281110 -19 255 11
0.125811 -0.010058 -0.431937 125 205 -87
-0.163961 0.057980 0.188220 -239 87 3
0.180938 -0.137415 0.077894 255 13 -5
-0.075473 -0.045599 -0.459795 -67 79 -233
0.173461 0.045403 0.158894 247 63 5
-0.046470 0.104241 0.426235 -39 137 211
-0.059761 0.026453 -0.302386 -19 251 -39
-0.057449 0.030232 -0.279057 -19 251 -37
-0.059965 -0.143887 0.384033 -1 -255 19
-0.191678 0.002629 0.064240 -231 -105 9
-0.114858 -0.112867 0.466708 -1 -1 255
0.162320 -0.000072 -0.342775 51 247 -37
-0.134774 -0.147192 -0.417936 -1 -11 255
0.068670 0.118550 -0.093455 27 211 -141
0.118989 -0.157128 0.055612 -1 -255 -1
-0.123155 0.029879 -0.203878 21 195 163
-0.146341 0.103086 0.367424 -231 107 11
0.142370 0.108838 0.313201 235 95 27
0.120545 0.041362 -0.184201 39 193 -163
0.190946 -0.042144 0.331071 -1 -239 -87
-0.175292 -0.007271 0.430358 -219 51 119
0.150970 -0.060222 -0.457723 51 181 -173
