ply
format ascii 1.0
element vertex 1207
property float x
property float y
property float z
property uchar red
property uchar green
property uchar blue
end_header
0.041775 0.120273 0.008078 -1 255 -7
-0.213566 -0.016676 0.104886 -253 33 -7
0.150767 0.044509 -0.090606 179 173 -55
-0.130356 0.092258 0.095165 -187 173 -25
-0.039967 -0.125165 0.443107 -1 -253 -31
-0.160266 -0.070334 0.426771 -19 -193 165
0.103342 -0.066632 -0.312396 15 -243 75
0.056527 -0.065636 0.436854 1 -185 175
0.085256 -0.123762 -0.087592 -3 -255 -1
0.142981 0.018502 -0.443155 -49 251 1
0.065903 -0.114320 0.430128 25 -159 -199
-0.163245 -0.032829 0.469734 1 1 255
-0.142535 -0.040039 -0.449820 -7 247 -61
-0.104730 -0.055414 -0.389362 -255 13 -15
-0.206740 0.010469 -0.011193 -247 65 -7
0.136983 -0.098589 0.322357 1 1 255
0.196369 -0.059584 0.418566 229 -97 59
0.212678 0.003487 0.437439 255 -19 5
0.199852 0.011315 -0.212028 -229 -113 15
0.224013 -0.040479 0.014711 255 7 -1
0.183434 -0.029168 -0.411809 79 229 -81
-0.193592 0.031990 0.445071 -243 65 43
0.069989 -0.010331 -0.388669 -1 253 33
0.030438 -0.012654 -0.388187 -1 245 -71
-0.074534 0.056644 0.355424 -23 249 47
0.085877 0.120452 0.055192 15 255 -5
-0.210498 -0.051579 0.195407 -13 -93 237
-0.111486 -0.121405 -0.371605 27 -253 -29
0.166775 -0.124104 -0.156177 3 -255 1
0.060724 -0.054383 -0.353499 1 -241 83
-0.168238 0.045744 0.484420 -15 219 -129
-0.133070 -0.106285 -0.440425 3 -241 -83
0.096022 0.040489 0.490187 -1 -131 219
-0.019495 -0.123870 0.438208 -1 -253 -31
-0.201709 0.024195 -0.040137 -237 93 -9
-0.174468 -0.004773 -0.343783 -41 241 -75
-0.198315 0.025947 0.415298 -253 35 11
0.144899 0.045707 0.398667 25 249 43
-0.109476 -0.123818 -0.156537 3 -255 -1
-0.209567 -0.008745 0.410012 -151 205 17
-0.066828 -0.020017 -0.415495 -1 253 -31
0.198889 -0.020054 0.460749 245 -3 67
-0.044110 -0.123360 -0.123521 3 -255 -1
0.148383 -0.036399 -0.206232 -151 -75 -191
0.205278 -0.105528 0.088331 221 -125 1
0.084560 -0.006653 -0.372778 -1 253 39
-0.104810 -0.055659 -0.271935 -11 -253 31
-0.057118 -0.130985 0.203284 -1 -255 11
0.072228 0.121344 0.064737 11 255 -7
0.101506 -0.124034 -0.119133 -3 -255 -1
0.166393 0.034508 0.308973 255 -1 -1
0.219230 -0.024793 0.085878 97 235 -9
0.049004 -0.055675 -0.355701 1 -239 87
0.079341 -0.133130 0.439416 127 -187 -117
-0.205937 0.009450 -0.251265 -39 251 29
-0.202309 -0.109687 -0.055197 -219 -131 -1
0.095319 -0.095896 0.287638 -1 -247 -65
0.188011 -0.106333 0.178357 5 -55 249
-0.219856 -0.071119 0.054078 -249 -59 1
0.018713 -0.122953 -0.111410 -1 -255 -1
-0.092711 0.088609 0.273569 5 253 27
-0.207112 -0.036693 0.406398 -245 -57 41
-0.142087 -0.119269 0.055209 -3 -255 -3
-0.109624 -0.050418 -0.307886 -247 33 -57
0.152824 -0.036892 0.374964 131 -1 219
0.213529 -0.078423 -0.170872 141 -25 -211
-0.176671 -0.123279 0.106218 7 -255 1
0.204995 0.033435 0.170842 249 59 -3
-0.053268 -0.113944 0.367487 -1 -255 5
0.210255 0.020064 0.091200 247 65 1
0.205449 -0.003039 0.406533 243 71 19
-0.213688 -0.021446 0.066993 -217 135 -5
0.220391 -0.008109 0.233632 119 189 -123
0.091411 -0.027004 0.451232 -123 -105 197
0.051515 -0.099767 0.181243 -1 -71 245
0.193527 0.020373 -0.188651 -53 -249 25
-0.118699 -0.077137 0.422733 -7 -191 169
-0.083456 -0.123467 -0.147768 3 -255 -1
0.137566 0.031843 -0.183940 -35 -249 39
-0.154892 0.051400 0.359782 -25 251 43
0.086017 -0.051362 0.211075 167 -193 5
0.001294 0.046936 0.493973 1 -127 221
-0.005128 -0.027418 -0.434443 -1 237 -95
0.071505 -0.112853 0.430635 25 -155 -201
0.097989 0.121439 0.129532 15 255 -5
0.106750 -0.125006 -0.197609 -69 -1 245
0.186963 0.030755 -0.102242 69 245 -25
0.158094 0.052702 0.020482 185 171 -33
-0.180174 -0.018115 0.470198 1 1 255
-0.160544 0.022543 -0.438610 -1 255 1
-0.114031 -0.053578 -0.482626 -9 189 -171
0.196150 -0.088575 -0.440029 235 -97 -25
-0.224334 -0.049061 0.135317 -255 3 1
0.194342 -0.015171 -0.361150 165 187 -53
0.034870 0.045280 -0.201921 27 231 -107
-0.009649 0.115710 0.210787 1 1 255
-0.043667 -0.123334 -0.068341 3 -255 -1
-0.046664 0.134535 0.176071 -3 255 19
-0.190192 -0.007393 -0.340926 65 -235 73
-0.158388 -0.113052 0.217794 105 225 -55
-0.063254 0.123423 0.126914 -15 255 -7
0.084075 0.079250 -0.106825 105 213 -95
-0.201652 -0.110669 0.148754 -221 -125 3
-0.161215 -0.046106 -0.467240 -17 219 -129
0.218422 0.009477 0.348700 113 211 87
0.051294 0.074750 -0.134410 57 225 -105
-0.104406 -0.056690 -0.488156 -23 187 -171
-0.153535 -0.115343 -0.401807 -1 -251 -45
-0.012477 -0.123400 -0.048221 -1 -255 -1
-0.133409 -0.000076 -0.255996 -205 -153 3
0.009911 0.021071 -0.268906 -1 249 -53
-0.202733 0.031998 0.059846 -245 73 -9
-0.172295 0.050391 0.051654 -69 245 -25
0.208047 0.015501 0.077885 247 65 -7
-0.207815 -0.000096 -0.306589 45 -249 35
-0.198693 0.037675 0.380085 -251 43 13
0.126181 0.083812 0.000741 179 179 -25
-0.210976 -0.054325 -0.398216 -249 -47 -23
-0.117504 -0.123902 0.129070 -1 -255 -1
-0.198289 -0.085992 -0.429842 -235 -97 -25
0.150412 -0.133497 0.153197 3 -255 -1
0.103231 -0.123798 0.065172 -3 -255 -1
0.063313 0.042130 0.438366 3 249 51
0.205025 0.027779 0.306397 251 43 13
-0.110003 0.048996 0.387677 -17 249 51
0.132487 0.018104 -0.431368 7 195 165
0.051268 -0.123122 -0.159143 -3 -255 -1
-0.143464 0.116049 0.189130 -207 149 -7
0.205189 0.015630 -0.009490 247 65 -7
-0.220374 -0.026665 0.185892 -243 77 -3
-0.206326 -0.010108 -0.154013 -251 45 -7
0.086816 0.071291 0.306089 1 1 255
0.221811 0.014784 0.214086 237 87 39
0.139750 0.040502 0.430336 29 249 47
0.035188 0.090677 0.257278 1 253 33
-0.147176 -0.114299 -0.407449 9 -251 -45
-0.038201 0.134203 0.184747 -3 255 19
0.082847 0.036618 0.459093 13 251 45
0.139519 0.120111 0.169900 207 149 -7
0.135998 -0.124500 0.146625 -3 -255 -1
-0.015598 -0.073012 0.248137 1 -255 3
-0.035174 0.105249 -0.076380 -23 229 -111
-0.125602 -0.019005 0.462910 -1 -1 255
-0.173345 -0.119841 0.146962 -33 -253 -9
-0.006423 -0.093877 0.303701 -135 -95 193
0.159170 -0.017162 0.361735 223 -1 -123
0.052608 0.004527 0.462370 1 -1 255
-0.011280 -0.099574 0.365230 -1 -253 -25
-0.026347 -0.063007 -0.377387 1 -239 87
0.146751 0.057619 0.325520 15 251 37
0.203846 0.028020 0.052515 237 93 -9
0.062374 0.045158 -0.192251 57 225 -105
0.006374 0.071515 0.306188 1 1 255
0.209491 -0.014908 -0.192028 -233 -89 -55
0.224597 -0.044748 -0.003587 255 7 -1
0.170887 0.058989 0.276805 63 247 9
-0.072077 -0.123960 0.139062 -1 -255 -1
-0.191518 -0.101440 -0.175168 -95 -235 -19
0.113507 0.018661 -0.280944 21 245 -65
-0.182219 0.047757 0.073689 -99 233 -19
0.212577 -0.019995 0.046914 253 33 -7
-0.201100 0.010973 -0.238550 -69 231 85
-0.200568 -0.017436 0.451549 -247 3 61
-0.108782 -0.113957 -0.198218 -27 -253 -23
0.197796 -0.049066 0.433688 227 -103 55
-0.130784 -0.113205 -0.413846 -1 -249 -55
-0.117044 0.095066 -0.037865 -159 199 -27
0.015324 0.122765 -0.040155 225 119 1
0.215966 -0.011622 0.386356 129 109 191
-0.054074 0.120635 0.173146 13 -239 89
0.134936 -0.014019 -0.448076 -15 -11 -255
-0.070276 0.056840 0.354455 -23 249 47
-0.071578 -0.002970 -0.357946 -1 253 33
-0.065593 -0.071186 -0.347833 251 -31 -25
0.094815 -0.038319 0.276887 205 -153 3
0.215659 -0.085212 -0.006408 235 -101 -1
-0.017023 0.044669 0.428549 1 -251 -45
-0.050134 0.021306 0.479849 -1 -125 223
0.053007 -0.096843 0.397383 1 -37 253
0.087958 -0.007156 -0.369903 -1 255 -11
0.182860 -0.066026 -0.475326 -3 -255 -3
0.195688 -0.120940 -0.043713 219 -131 -1
-0.175497 0.037939 0.425722 -21 249 51
-0.044847 -0.054017 -0.486441 -5 223 -123
-0.082873 -0.113119 0.431195 -201 -155 -25
0.063065 0.054063 0.375998 3 251 41
-0.220800 -0.068293 -0.060373 -247 -65 -1
-0.194050 0.012390 -0.268645 39 -251 5
-0.069953 0.078881 0.291604 -205 125 -85
-0.157463 -0.113278 0.376469 -125 -1 223
0.217824 -0.024448 -0.194696 123 119 189
-0.224530 -0.051795 -0.147895 -255 13 -1
0.082138 -0.136686 0.450994 61 -229 93
-0.020430 0.033157 -0.235125 -27 199 -157
-0.237305 -0.034442 0.384496 -123 55 217
0.211337 -0.059258 -0.380464 251 -29 -33
0.082647 0.120083 0.009652 -1 255 -3
0.156289 -0.080212 0.393497 -9 -15 -255
-0.167916 0.045019 0.482757 -15 219 -129
0.209032 -0.098858 -0.098943 219 -131 -1
0.231493 -0.105829 0.200312 129 -53 -213
-0.026941 -0.011841 0.462521 -1 -1 255
0.217113 -0.033235 -0.162952 97 235 -9
-0.101539 0.048168 0.196902 1 -255 -11
-0.168199 0.022276 -0.218447 53 -247 27
0.201251 0.050298 0.299770 61 247 3
-0.097325 -0.090882 -0.464142 -11 -185 -175
-0.172813 -0.055669 0.443474 -15 -193 165
-0.196410 0.035001 -0.007174 -99 233 -19
-0.223951 -0.034966 0.170926 -233 103 5
0.157133 0.042867 0.411344 25 249 51
-0.102004 0.026582 -0.244122 175 181 -37
0.164364 -0.116507 0.317708 3 -255 21
-0.098478 -0.024459 -0.426446 -5 243 -77
0.012217 0.123755 0.115491 -1 255 -9
0.172497 0.022267 -0.207647 47 249 -29
0.132336 -0.103169 -0.450103 -3 -243 -77
-0.109929 -0.004902 -0.365785 -7 241 -83
0.082249 -0.124197 0.100766 -1 -255 -1
-0.209269 -0.006430 -0.029119 -251 45 -7
0.052603 -0.072100 0.302577 3 -255 3
0.033450 0.090871 0.254216 1 253 33
0.136173 -0.132727 -0.172398 3 -255 -1
0.020537 -0.067134 -0.238877 39 -1 -253
0.038527 -0.131067 -0.219093 -1 -255 -1
-0.207528 0.020796 0.260495 -251 49 5
0.208948 -0.015113 -0.081848 253 33 -7
-0.064121 0.119675 -0.024192 -1 255 -3
0.039776 0.054388 0.376863 -3 -251 -41
0.212735 -0.050227 -0.385401 87 235 -43
0.216356 -0.102571 0.190554 129 -53 -213
-0.227145 -0.006203 -0.226924 -253 -15 29
-0.074141 -0.123624 -0.011324 3 -255 -1
0.209124 -0.098240 0.105241 221 -125 1
0.126608 -0.095814 0.298019 -43 -243 65
0.224142 -0.040344 -0.099461 255 7 -1
-0.195690 0.020333 -0.185977 53 -249 25
0.005356 -0.114277 0.368607 -1 -255 5
-0.210913 -0.005451 0.380683 -109 187 135
-0.205055 0.008459 -0.079526 -251 45 -7
0.145182 -0.113759 0.327558 -255 9 -1
0.188372 -0.009190 -0.347839 65 235 -73
-0.080659 -0.022144 0.352261 -1 -255 -1
-0.126756 -0.039166 -0.451202 -57 233 -85
-0.084057 0.010891 -0.305580 -1 245 -69
-0.016495 0.124617 -0.039765 -225 119 1
-0.068062 0.103020 0.241757 1 253 33
0.130898 0.085923 0.051332 185 173 -23
0.158246 -0.059424 -0.485208 9 207 -149
-0.208567 -0.099587 0.102691 -223 -125 1
0.077134 -0.123028 -0.179389 -5 -255 -21
0.088267 -0.123938 -0.030129 -3 -255 -1
-0.206791 -0.101717 -0.151473 -219 -131 -1
0.153435 0.026215 -0.206712 -39 -249 33
0.204970 0.033071 0.139514 249 59 -3
-0.148835 0.006231 0.469710 1 1 255
0.110248 0.102904 -0.029215 179 181 -19
-0.012121 0.069071 -0.156300 -23 231 -107
-0.131970 -0.133241 0.030626 -3 -255 -1
-0.145456 0.003673 -0.414615 -7 195 165
-0.132700 -0.117802 -0.058091 -33 -253 -9
0.095153 -0.107867 -0.434352 13 -241 -83
-0.015015 -0.051406 -0.343074 1 -241 83
-0.056600 -0.123828 0.023527 -1 -255 -1
0.162661 0.018471 -0.251791 53 245 -47
-0.165813 -0.094820 -0.469861 -9 -221 -129
-0.035281 0.037732 -0.224615 -33 225 -113
-0.214504 -0.022453 0.083410 -131 219 -9
-0.108996 -0.051879 -0.310920 -247 33 -57
-0.196077 -0.120202 -0.091976 -219 -131 -1
-0.017084 -0.123158 -0.073633 -1 -255 -1
0.066510 0.019368 -0.279144 5 249 -59
0.224438 -0.044470 -0.050034 255 7 -1
-0.154077 0.072462 0.219778 -243 73 21
0.126606 0.035368 -0.171058 35 249 -39
-0.092180 0.053986 0.361204 -19 251 41
0.017555 -0.123982 0.116855 -1 -255 -1
0.224600 -0.046190 -0.041904 255 7 -1
0.155145 -0.112857 -0.418810 1 -249 -53
-0.237694 0.009537 0.291787 113 -221 55
0.213104 -0.064669 -0.363912 241 -77 -29
0.151670 -0.132717 -0.148518 3 -255 -1
0.152252 0.073665 0.234533 243 73 21
-0.098258 -0.041741 -0.463882 5 217 -135
0.152101 0.004462 -0.448044 11 15 -255
0.067527 -0.051680 0.447595 -1 1 255
-0.109442 0.102751 0.007360 -187 173 -25
-0.174472 0.050245 0.042931 -57 247 -19
0.160954 -0.133081 -0.014768 3 -255 -1
0.025360 0.017958 0.478185 -1 -125 223
0.074942 0.123508 0.148927 13 255 -7
-0.068100 0.043335 0.431537 -17 251 45
0.088856 -0.089003 0.316523 -25 -253 1
0.208675 0.018068 0.198556 247 63 5
-0.208600 0.039412 0.480294 -247 51 43
-0.196230 0.045561 0.349280 -49 247 35
-0.113338 0.071403 -0.088797 -137 197 -83
0.203233 0.046624 0.261240 251 45 9
0.212403 -0.002968 0.127080 253 33 -7
0.139656 -0.133334 0.032651 3 -255 -1
-0.109091 -0.112616 -0.414091 5 -251 -49
-0.176140 0.049748 0.042247 -57 247 -19
-0.062027 -0.094269 0.284637 -1 -181 -181
-0.011223 0.120852 0.022455 1 255 -9
0.211001 -0.012416 0.003941 253 33 -7
-0.212183 -0.009857 0.072582 -253 33 -7
0.187034 -0.123921 0.159449 1 -255 -7
0.198032 0.035553 0.003003 99 233 -19
0.153155 -0.120713 0.260194 -3 -253 31
0.061070 0.046331 0.478986 7 223 -123
-0.116235 0.056254 0.350237 -3 251 47
0.195549 -0.121845 0.124400 219 -131 -1
-0.211826 -0.094313 -0.091582 -219 -131 -1
0.029038 0.072797 -0.145728 9 229 -111
-0.223389 -0.069838 0.192768 -149 27 -205
-0.141037 -0.070850 0.428984 -13 -193 167
0.029256 0.042684 0.438968 3 249 51
-0.203032 0.027038 0.345397 -249 55 17
-0.173653 -0.005127 -0.181789 -77 81 -229
0.086673 0.053224 -0.158945 81 221 -99
0.199938 0.050713 0.301490 61 247 3
-0.205940 -0.104129 -0.047812 -219 -131 -1
-0.159122 -0.041906 0.374736 -131 -1 219
0.201370 -0.111524 0.006695 219 -131 -1
-0.025948 0.121898 0.054553 -7 255 -9
0.123283 0.110442 0.148550 169 189 -33
-0.188195 -0.009450 -0.349850 -65 235 -73
0.155408 0.069080 0.216201 243 73 21
0.117127 -0.032254 0.462837 -99 -109 209
0.212255 0.000704 0.178794 251 39 -1
0.098238 -0.096933 -0.457337 75 -223 -99
-0.051186 0.122631 0.097611 -1 255 -7
0.002910 -0.113751 0.364839 -1 -255 5
0.166953 -0.033902 0.464320 49 -251 1
-0.106958 -0.028004 0.460087 87 -127 203
0.205222 -0.005167 0.450252 -7 255 -9
-0.217638 -0.080977 0.130656 -235 -101 -1
-0.161177 0.013716 -0.281151 -31 245 -65
0.145957 0.018780 -0.267214 23 251 -43
-0.208347 -0.099857 -0.090176 -219 -131 -1
-0.189973 -0.090937 -0.455048 -207 -141 -51
-0.027785 -0.130913 -0.215831 -1 -255 -1
0.138725 0.086410 0.115014 187 173 -25
0.061030 -0.072709 0.220921 3 -255 3
-0.044116 -0.124009 0.155977 -1 -255 -1
0.112297 0.060219 0.330775 21 253 27
-0.035459 -0.095926 0.287673 -1 -247 -65
0.152506 -0.133475 0.137164 3 -255 -1
-0.203747 -0.107275 -0.080892 -219 -131 -1
0.113247 -0.076154 0.419628 -129 -49 -215
-0.127698 0.078634 -0.017815 -189 167 -35
0.169713 0.047390 0.014946 69 245 -25
0.148862 -0.065742 -0.484719 19 -43 -251
-0.158506 -0.006810 -0.362506 -39 243 -65
-0.085462 -0.056061 -0.222135 -75 41 -241
-0.057554 -0.011324 0.338141 -3 -213 139
-0.069485 -0.117261 0.455080 -1 -255 -1
0.035297 -0.123254 -0.139048 -3 -255 -1
0.222033 -0.063636 -0.044263 249 -59 1
-0.143082 0.023833 -0.441337 -11 229 111
-0.183936 -0.064196 0.191912 -13 -93 237
0.183860 -0.023492 -0.395107 -83 -229 73
0.110112 0.055009 0.499525 -3 -137 215
0.223631 -0.041467 0.181024 255 3 3
0.122487 0.029110 -0.220489 47 249 -27
0.139581 0.050452 0.371034 27 251 39
0.032562 -0.117571 0.182180 5 -255 -13
-0.046577 0.074976 0.305890 1 1 255
0.145055 0.030200 -0.183880 47 249 -31
-0.210441 -0.025412 -0.132073 -217 135 -5
0.119048 -0.064967 -0.213032 75 41 -241
0.064807 -0.041060 -0.310237 1 -243 75
0.104148 -0.080938 -0.407122 253 19 -17
0.153849 0.079398 0.149965 189 169 -21
-0.020462 0.071603 -0.149504 -27 231 -107
-0.123706 0.088131 -0.035474 -219 133 7
0.198649 0.021165 0.415257 253 35 11
-0.226470 -0.105749 0.197582 -129 -53 -213
-0.214119 0.007609 0.196490 -35 189 -167
-0.224428 -0.045904 -0.037563 -255 7 -1
-0.090675 0.068706 -0.123374 -105 213 -95
-0.068637 0.006160 -0.331258 -1 253 35
-0.048781 -0.003188 -0.359491 -7 245 -73
-0.219442 -0.004724 0.237707 119 -189 123
0.193568 -0.032686 0.461675 25 -145 209
0.107119 0.114130 0.057537 135 215 -15
-0.209849 0.013866 0.143589 -247 63 -1
0.202426 -0.026809 0.439744 241 -55 57
-0.234603 -0.069154 0.200893 -149 27 -205
0.076099 -0.057589 -0.490113 9 203 -153
0.208439 -0.034069 0.401660 245 -57 41
0.013005 0.102817 0.239784 1 253 33
0.157800 0.025252 -0.208822 43 249 -31
0.208221 0.011601 0.049380 247 65 -7
-0.000490 0.110219 -0.071175 -27 231 -107
0.033504 -0.131696 0.184133 -1 -255 7
0.102236 -0.075822 -0.483248 -251 -21 -37
-0.091228 0.046615 0.479529 -7 223 -123
-0.220707 -0.066848 0.068243 -249 -59 1
-0.156557 -0.133057 0.056851 -3 -255 -1
-0.245543 -0.060723 0.212182 -255 -5 -5
0.206137 0.027373 0.137336 247 63 -1
0.150471 -0.024525 0.230059 85 -239 33
-0.126680 0.043882 -0.132160 -137 197 -83
-0.039870 0.119731 -0.022638 -1 255 -1
-0.202219 -0.031734 -0.384334 -205 141 -53
-0.106587 -0.131555 0.189966 -1 -255 7
-0.158015 -0.040840 -0.187616 -151 75 191
-0.048255 -0.123978 0.100570 -1 -255 -1
-0.191065 -0.101176 -0.418048 207 145 33
0.153484 0.034819 0.460531 7 233 -101
-0.211126 -0.116406 0.191337 -141 -129 -169
-0.220129 -0.069997 -0.168767 -247 -61 11
0.050729 -0.123951 0.089215 -1 -255 -1
0.131044 -0.091286 -0.472584 5 -183 -177
-0.213688 -0.091440 0.071808 -19 -255 1
0.040942 0.121389 0.052772 -1 255 -7
0.078469 -0.074710 -0.227726 83 53 -235
0.223553 -0.056096 0.049569 249 -59 1
-0.205963 0.013770 -0.001486 -247 65 -7
0.048632 -0.072163 0.305981 3 -255 3
0.166492 -0.113567 0.323721 255 -1 -1
-0.034645 0.123031 0.097938 1 255 -7
-0.087691 0.021306 -0.266327 -5 249 -55
0.122233 0.042409 0.475437 7 223 -123
0.125947 0.124527 0.191167 -55 99 229
-0.210537 -0.005422 -0.319443 -63 243 -43
0.188883 -0.100905 -0.435866 207 -145 -33
0.009106 0.066059 -0.162940 11 231 -109
0.004602 0.073397 0.262957 1 251 39
0.028594 0.054863 0.370950 3 251 41
-0.097668 -0.088087 -0.364807 -11 -255 -1
-0.128610 0.029941 -0.206222 -37 251 -33
-0.024084 0.049002 -0.197138 -19 231 -109
0.219132 -0.069939 0.401095 -83 -49 -235
-0.212703 0.003983 0.445481 -255 11 7
0.149214 -0.043617 -0.460169 9 239 -89
0.106965 -0.111833 -0.418784 -5 -251 -49
0.128602 -0.133082 -0.085069 3 -255 -1
0.078388 0.075792 0.305333 -3 253 27
0.138138 0.005545 -0.324641 9 247 -65
0.224055 -0.039014 0.144886 255 3 1
0.165311 0.006675 -0.442508 15 9 -255
-0.199686 -0.114768 0.102153 -219 -131 -1
-0.114946 -0.093399 -0.469810 -13 -191 -169
0.105668 0.078277 0.285562 1 253 33
0.042990 -0.110695 0.464731 -3 -59 247
0.002196 0.037364 -0.225223 -9 253 29
0.111059 -0.132269 -0.215166 -25 -253 -1
-0.048447 -0.043420 -0.467331 -1 229 -113
-0.090130 -0.088286 0.318838 25 -253 1
0.039869 -0.123440 -0.001031 -1 -255 -1
0.078875 0.133494 0.183859 3 255 19
-0.038770 0.091472 0.250609 1 253 33
-0.045191 -0.131031 -0.236564 -1 -255 -1
0.085625 -0.123656 -0.139549 -3 -255 -1
0.061966 0.017337 -0.287258 1 247 -65
0.057360 0.078127 0.290613 1 253 33
-0.132404 -0.003308 -0.359348 -7 247 -67
-0.224159 -0.043213 0.183084 -255 3 3
-0.233119 0.011926 0.297511 -115 227 -1
-0.116472 0.061842 -0.106290 -137 197 -83
-0.226847 -0.000333 -0.298971 -25 233 -99
0.099796 0.050978 0.381656 17 251 39
-0.210626 0.004258 0.238799 -251 43 3
0.052098 0.077990 0.289306 1 253 33
0.023035 0.078460 0.286621 1 253 33
0.139194 0.034012 0.456819 11 251 43
-0.160241 0.066230 0.289693 -161 181 81
0.064875 -0.072633 0.235650 3 -255 3
0.129592 0.039041 0.434948 -9 247 61
-0.165908 -0.116985 0.312794 -3 -255 21
-0.204220 0.043778 0.210179 -253 37 -1
-0.188168 0.032060 -0.087868 -69 245 -25
0.064220 -0.062451 -0.333979 -253 -23 -7
-0.014327 0.046958 0.479304 -3 223 -125
-0.149068 0.072999 0.101756 -185 173 -23
0.203717 0.010558 -0.245855 53 245 -47
-0.085200 -0.056229 -0.269808 -11 -253 31
-0.022427 -0.122829 -0.168783 5 -255 -21
-0.140107 -0.046400 -0.201613 -171 29 -187
-0.071465 0.090094 -0.092455 -49 223 -113
0.223874 0.006129 0.261510 117 207 -93
0.124714 0.042514 -0.137633 139 199 -79
-0.040440 0.119862 -0.022173 -1 255 -1
0.044869 0.006458 -0.326776 -49 249 -13
-0.006748 -0.036708 0.447654 1 -1 -255
-0.186363 -0.035349 -0.426214 79 -229 81
-0.063501 0.036516 0.488727 -1 -129 221
0.138877 -0.095154 0.296547 109 -163 -163
0.183758 -0.123671 -0.010618 3 -255 -1
0.190710 -0.056678 0.439194 23 -191 167
-0.027521 -0.113903 0.369038 -1 -255 5
-0.116456 0.059596 0.331729 -27 251 29
-0.130157 -0.133022 -0.110602 -3 -255 -1
-0.198514 -0.008529 -0.330813 -109 229 -23
-0.024092 -0.115762 0.468190 -1 -187 175
0.030576 0.062853 0.337588 9 247 63
-0.181400 0.046882 0.362380 43 -249 -29
-0.023461 0.122747 0.083885 -7 255 -9
-0.221139 -0.036251 -0.150761 -221 127 -3
-0.210056 -0.005350 0.381619 109 -187 -135
0.164911 -0.118987 0.127943 193 -165 -23
-0.224175 -0.077734 0.400668 -39 -237 83
-0.114695 -0.124138 -0.054040 3 -255 -1
-0.019050 -0.123979 0.122441 -1 -255 -1
-0.179680 -0.073607 0.422025 -27 -193 163
0.041616 -0.123883 0.111719 -1 -255 -1
0.021998 -0.096575 0.182203 -3 -73 245
-0.111414 0.001250 0.462485 -1 -1 255
0.196054 -0.033880 -0.176344 -69 -37 -243
0.192635 -0.050923 -0.464727 53 221 -117
0.230935 0.001601 -0.247036 253 -5 25
0.062816 -0.123216 -0.171774 -3 -255 -1
0.125656 -0.133106 -0.220264 -25 -253 -1
-0.008595 -0.123556 -0.030514 -1 -255 -1
-0.136561 -0.090969 -0.472510 -9 -179 -181
-0.173690 0.032383 -0.126586 -49 247 -37
-0.158648 -0.124268 -0.161632 -3 -255 1
0.124313 0.094638 0.064969 187 173 -25
-0.141663 0.069333 0.300829 -195 165 1
-0.047342 0.055236 0.370108 -3 251 41
-0.212004 0.007144 0.452160 -255 11 7
-0.078141 0.106072 0.213969 1 253 33
-0.170766 0.020195 -0.226872 -53 247 -27
0.103640 -0.046471 -0.472976 -15 209 -145
0.169805 -0.112888 -0.413547 -1 -249 -57
0.074699 -0.001779 -0.352738 -1 245 -71
0.130658 -0.048390 -0.475780 9 219 -131
0.043036 0.121615 0.051949 -1 255 -7
-0.205502 0.023849 0.071229 -247 65 -7
-0.057927 -0.072448 -0.234092 -83 53 -235
-0.186882 0.054524 0.259360 -71 245 5
0.100681 -0.124015 0.046830 -3 -255 -1
-0.032269 -0.123265 -0.121915 3 -255 -1
-0.205120 0.009199 -0.070557 -247 65 -7
-0.082654 -0.109113 -0.233947 -83 53 -235
-0.037840 0.048280 -0.195219 -33 229 -107
0.033496 0.056280 -0.179870 9 229 -111
-0.188652 -0.123625 -0.143419 -3 -255 -1
-0.128549 0.023071 -0.439080 -11 229 111
0.174049 0.058219 0.257242 71 245 5
-0.213460 -0.089411 -0.029460 -235 -101 -1
0.105130 0.015919 -0.293602 19 249 -51
0.053944 0.124321 0.159889 -1 255 -7
-0.220860 -0.067214 -0.076636 -247 -65 -1
0.095080 0.036838 -0.194112 71 223 -99
0.205746 -0.103719 0.067086 219 -131 -1
-0.206576 -0.033968 -0.363102 -211 141 -31
0.198987 0.021678 -0.132170 237 93 -9
0.186640 -0.033765 -0.422532 79 229 -81
-0.037260 0.123857 0.131426 -13 255 -9
-0.084017 0.010220 -0.310294 -1 255 17
-0.152868 -0.040155 0.461256 -33 -157 199
-0.202547 -0.070017 -0.435226 -245 -67 -25
-0.155769 0.030191 -0.169392 -53 247 -27
0.007904 -0.037996 -0.457833 1 225 -121
-0.104600 -0.025728 0.460893 123 -105 197
-0.014663 -0.131337 0.199730 -1 -255 7
0.136324 0.009837 -0.309020 13 247 -63
0.103729 0.115601 0.041432 183 177 -23
0.034381 -0.020308 -0.418668 -1 255 21
0.044189 -0.109105 0.465074 -3 57 249
-0.052621 0.114667 0.210643 1 1 255
-0.019851 -0.096242 0.398234 1 -37 253
0.158079 0.061347 0.299556 75 221 101
0.094418 -0.010540 -0.383013 -47 251 -9
0.228563 0.013699 0.315906 -111 -225 -41
0.065002 0.050801 0.393830 -3 -249 -51
0.155006 0.061897 0.055249 179 179 -25
-0.157687 0.052371 0.494801 -7 223 -123
-0.035450 -0.130701 -0.227427 -1 -255 -1
-0.105718 -0.053741 -0.253998 -5 -253 23
0.219840 0.015350 0.220664 83 -149 189
-0.075692 -0.111886 0.417679 161 -183 -77
0.200274 0.042950 0.342872 249 49 17
-0.065442 -0.123650 -0.094901 3 -255 -1
0.141564 0.017683 -0.429653 7 195 165
-0.080740 0.123077 0.152330 -11 255 -7
-0.077795 0.123784 0.163333 -11 255 -1
-0.067774 0.109411 0.204108 -255 3 -1
-0.043091 -0.090458 -0.468268 -11 -199 -157
0.103823 0.088713 -0.063160 137 197 -83
0.126066 0.043861 0.492918 -3 -137 215
0.215242 -0.007664 -0.205654 137 153 151
0.160172 0.033402 -0.137647 65 245 -33
-0.068951 0.120863 0.040305 1 255 -5
-0.195010 0.051691 0.496607 -5 217 -133
0.197627 -0.031967 0.457866 245 -29 65
-0.058857 -0.071046 -0.481747 -15 -101 -233
0.044296 -0.117072 0.437479 -1 -255 -1
-0.099304 -0.083134 -0.476033 -3 -133 -217
0.037608 0.068888 -0.152114 37 229 -107
-0.154533 -0.115731 0.340198 -15 -255 17
0.188950 -0.033277 0.290265 -139 -211 -37
-0.067589 -0.123658 -0.143216 3 -255 -1
0.153292 -0.003258 -0.354564 39 243 -65
0.176302 0.050477 0.344173 49 247 35
0.211633 0.022253 0.461774 255 -15 15
-0.018724 -0.122990 -0.166388 3 -255 -1
0.096078 0.120012 0.051997 71 245 -7
-0.108081 0.012848 -0.302828 -13 245 -71
0.099670 0.054041 -0.146001 105 213 -95
-0.054576 -0.104722 0.387518 1 -225 -121
0.212856 0.000108 -0.302779 -25 -233 99
0.071807 -0.055744 0.425415 -1 -51 -249
-0.160272 -0.077613 -0.193602 -117 55 -219
-0.208633 -0.007250 -0.057027 -251 45 -7
0.198967 0.019663 0.427764 247 53 29
-0.199039 0.030777 0.402242 -253 35 13
0.169963 0.001790 -0.326020 41 241 -75
-0.159536 -0.089690 -0.474128 3 -159 -201
-0.095925 -0.059456 0.444675 65 -197 147
0.193547 -0.066803 -0.474888 179 -101 -151
0.009759 0.127836 -0.037917 11 255 1
0.030816 0.120080 0.000897 -1 255 -7
0.030052 -0.037280 -0.458043 3 223 -125
-0.135546 0.054170 0.353076 -25 249 45
-0.148145 0.029511 -0.183883 -47 249 -31
0.064834 0.041864 -0.197935 57 225 -105
0.120897 0.027909 -0.231333 47 249 -27
0.079193 -0.005730 0.462747 -1 -1 255
-0.004688 -0.123415 -0.028810 -1 -255 -1
0.232023 -0.049272 0.393507 107 1 231
0.025871 -0.008754 0.462387 1 -1 255
0.168353 -0.002201 -0.340720 61 237 -69
-0.007408 -0.023941 -0.424214 -1 241 -83
0.000309 0.052610 0.387006 1 -251 -41
0.063582 -0.118569 0.202299 -1 251 39
0.203959 0.009066 -0.278086 27 245 -67
-0.003944 -0.123447 -0.003249 -1 -255 -1
0.139224 0.085525 0.116347 187 173 -25
-0.015561 0.063071 0.337098 3 249 55
-0.142792 -0.002343 -0.449036 3 19 -255
0.243996 -0.075701 0.209407 251 -41 -9
0.210609 0.008153 0.238994 -251 -43 -3
0.177975 -0.116832 -0.393179 43 -249 -39
0.042577 -0.124052 0.149961 -1 -255 -1
0.192116 -0.046516 -0.456844 73 231 -81
0.155447 -0.119703 -0.378039 1 -251 -45
0.211873 -0.001579 0.452773 255 9 5
0.170792 -0.005827 -0.351929 -61 -237 69
-0.077168 -0.096210 0.411951 117 217 67
-0.177636 0.050035 0.492006 -9 219 -129
0.109776 0.039302 -0.174172 131 189 -111
0.215020 -0.015530 0.163711 251 39 -1
-0.210323 -0.021307 -0.056550 -253 33 -7
-0.109973 -0.032661 0.357969 -1 -255 -1
0.108145 -0.130881 0.200837 1 -255 11
-0.146379 0.037768 -0.130245 -49 247 -43
0.179776 0.046258 0.040841 99 233 -19
-0.153581 0.024189 -0.222045 -39 249 -33
-0.223580 -0.007721 0.236874 -119 189 -123
-0.211192 -0.099401 0.186326 129 53 213
-0.037247 0.117609 0.204091 1 253 31
-0.026735 0.122291 0.075824 -7 255 -9
0.106427 -0.100379 0.373415 1 -253 -29
-0.158791 -0.010491 -0.373083 35 -239 83
-0.152495 -0.120079 0.277411 3 -255 -9
0.171752 -0.082369 -0.188577 117 55 -219
-0.064916 0.134334 0.179922 -3 255 19
-0.198202 -0.095742 -0.397683 221 123 25
-0.052717 0.038133 -0.217538 27 249 45
0.108161 0.041431 0.429091 15 251 43
-0.030434 -0.064916 -0.492601 -7 -245 -67
0.119743 -0.124144 -0.015210 -3 -255 -1
0.194796 0.043881 0.089376 99 233 -19
-0.041430 0.027849 0.483641 -1 -119 225
-0.085295 -0.031848 -0.444846 -1 229 -113
0.235486 -0.073504 0.391331 243 -63 43
-0.199892 -0.113414 -0.099556 -219 -131 -1
-0.024630 0.020158 -0.273000 -1 249 -53
-0.056878 0.119860 -0.006890 1 255 -3
-0.133759 -0.032995 0.462898 1 5 255
-0.052467 -0.123493 0.006595 -1 -255 -1
-0.159154 -0.131331 -0.003651 -253 31 -23
0.071753 -0.091054 -0.465959 9 -205 -153
0.119235 0.057098 -0.113203 137 197 -83
0.110740 -0.065701 -0.310531 11 -245 71
-0.147293 -0.117677 -0.196349 -95 -235 -19
-0.079875 0.104994 0.224622 1 253 33
-0.047645 -0.123482 -0.127234 3 -255 -1
-0.058964 -0.111039 0.461505 -3 -57 249
0.096931 0.091868 0.245670 1 253 33
0.206872 0.027549 0.184346 249 59 -3
-0.188163 0.040842 0.401101 -33 251 31
-0.009963 -0.068463 -0.241172 -39 -1 -253
-0.145024 -0.019906 -0.447942 -3 -19 -255
-0.162054 0.021438 -0.228894 -39 249 -33
-0.137507 0.034188 -0.164690 -47 249 -31
0.088102 -0.068260 -0.480731 11 -73 -245
-0.220991 -0.066384 -0.001538 -249 -59 1
-0.051475 -0.116196 0.458672 -1 -229 111
-0.039214 -0.014441 0.449955 7 -255 21
-0.185338 -0.026397 -0.401657 -79 229 -81
-0.199116 -0.078193 -0.446308 -237 -69 -63
-0.033265 0.055363 0.493517 -3 223 -125
0.002470 -0.131076 0.196111 -1 -255 7
0.060333 -0.123637 -0.095610 -3 -255 -1
-0.042181 0.136188 0.163659 -5 253 27
-0.120699 0.044996 0.492858 1 -135 217
0.083619 -0.100649 0.470689 -1 255 -1
0.204154 0.040306 0.198871 253 35 -3
-0.115311 0.043410 0.417270 -15 251 43
0.110359 0.051244 0.368753 17 251 39
-0.103253 -0.055282 -0.485599 13 203 -153
0.200644 -0.028824 -0.381974 179 173 -57
-0.207552 -0.024941 0.417591 -243 -63 47
-0.045693 -0.123996 0.127060 -1 -255 -1
0.050398 -0.122197 0.211375 -1 -1 255
0.062960 -0.110175 -0.430590 7 -245 -73
-0.246050 -0.013406 0.254185 -255 7 -5
-0.194752 0.039654 0.403546 33 -251 -31
-0.246293 -0.033359 0.225782 -107 231 -11
0.175207 -0.035651 -0.435492 45 233 -91
-0.226256 -0.080002 0.193805 -149 25 -205
-0.033462 -0.049047 -0.477952 -3 225 -119
-0.073187 -0.131180 0.199570 -1 -255 11
0.165041 -0.124208 -0.121479 3 -255 -1
-0.224051 -0.053129 0.135929 -249 -59 1
0.078926 -0.123540 -0.107399 -3 -255 -1
0.099681 -0.123920 0.118134 -1 -255 -1
0.215038 -0.029962 -0.095720 131 219 -9
-0.212035 -0.093481 -0.015143 -235 -101 -1
0.139846 0.034829 0.458017 7 233 -101
0.207108 0.006448 -0.285786 27 245 -67
0.023968 -0.130989 0.211317 1 -255 11
0.135933 0.124891 0.174142 135 215 21
-0.168458 0.041203 0.410384 -29 251 41
0.211658 -0.001610 0.101478 253 33 -7
-0.199801 0.006568 0.472209 -1 -127 221
0.033533 0.009761 -0.311508 -1 255 -15
-0.007351 0.063659 0.334321 -1 245 67
0.224258 -0.043815 -0.031197 255 7 -1
0.007678 0.022917 0.378641 -1 -253 29
0.003039 0.060666 0.341492 1 251 49
-0.037316 -0.097547 -0.456120 1 -249 -57
-0.160290 0.017948 -0.257637 53 -245 47
-0.042687 0.061999 -0.164368 -23 229 -111
0.102036 0.120110 0.112304 71 245 -7
0.109197 0.005236 -0.330799 7 247 -67
-0.097614 -0.123875 -0.049368 3 -255 -1
0.205450 -0.071136 0.406352 83 49 235
-0.057380 0.050299 0.395254 -3 249 51
0.054531 -0.130434 0.211345 -1 -1 255
0.159206 0.018137 -0.258173 53 245 -47
-0.143783 0.045016 0.404299 -27 249 43
0.040304 -0.009364 -0.379496 -1 245 -71
0.110282 -0.123987 0.026061 -3 -255 -1
0.194714 0.030161 -0.078093 99 233 -19
0.166226 0.028698 -0.160265 53 247 -27
0.218968 -0.074361 0.151513 249 -57 3
-0.172245 -0.119294 0.234882 -255 -1 1
-0.109055 -0.072509 -0.324674 -249 33 -49
0.231100 -0.055995 0.394133 -107 -1 -231
0.012899 0.047734 0.408929 -1 251 45
-0.072880 0.029763 -0.226155 -13 249 -53
0.194471 -0.100511 -0.400589 209 -143 -35
0.221078 -0.035100 -0.117493 231 109 -3
-0.168042 -0.121287 -0.166910 -7 -39 -251
0.111798 -0.030742 -0.209555 75 41 -241
0.074250 -0.030239 -0.441029 1 231 -105
-0.191601 -0.123638 -0.035171 -3 -255 -1
-0.098460 0.054674 0.354330 -19 251 41
-0.093361 0.089743 -0.074450 -139 199 -79
-0.210643 0.004379 0.089352 -253 33 -7
-0.041885 -0.097347 0.398006 1 -37 253
-0.123604 -0.106054 -0.154116 -245 -49 -51
0.066634 -0.091249 -0.465848 9 -205 -153
-0.151837 -0.001221 -0.345716 -39 243 -65
-0.192460 0.031756 -0.067487 -99 233 -19
0.050034 0.089077 0.267921 1 253 33
0.208953 0.037905 0.475773 253 23 23
-0.021283 0.076955 -0.137609 -9 229 -111
-0.158924 -0.004742 -0.405317 -7 195 165
0.051029 -0.123376 -0.168208 -3 -255 -1
-0.189859 0.051331 0.177615 1 85 241
-0.131745 -0.124440 0.145928 -1 -255 -1
0.179671 -0.037242 -0.436208 45 233 -91
0.224824 -0.048836 -0.179094 -255 -17 -3
0.236009 -0.064164 0.202289 149 27 -205
0.072156 -0.085255 -0.383463 -245 -55 -39
-0.135116 -0.014416 -0.448083 15 -11 -255
-0.203402 0.043662 0.174091 -253 33 -11
0.086548 0.010056 -0.311306 -1 255 17
-0.105531 -0.033134 0.455858 87 -127 203
0.020549 -0.040969 -0.310736 1 -243 75
-0.217869 -0.077703 -0.080887 -247 -65 -1
0.006907 -0.131211 0.189103 -1 -255 7
0.219377 -0.073489 -0.028186 247 -65 -1
0.222274 -0.031223 0.109708 231 109 1
-0.093608 -0.015408 0.462932 1 1 -255
0.052222 -0.122993 -0.174510 -5 -255 -21
-0.218204 -0.012355 -0.324370 -55 183 -169
0.071723 0.105092 0.222772 1 253 33
0.048712 -0.035909 -0.286684 1 -253 31
-0.156668 0.096429 0.177619 -207 149 -7
-0.051639 -0.123638 -0.023857 -1 -255 -1
0.012645 0.127131 -0.034978 161 197 1
-0.206220 -0.084784 -0.365187 -233 -101 -23
0.115136 0.098087 0.019574 187 173 -25
0.161493 0.048208 0.496370 -7 -151 205
0.021947 0.041081 0.490596 -1 -127 221
-0.098379 0.023033 0.481237 -1 -119 225
0.170030 -0.117876 -0.386867 11 -251 -41
-0.025457 -0.123418 -0.063607 -1 -255 -1
0.202018 -0.109773 -0.116619 219 -131 -1
-0.155144 0.072032 0.209095 -243 73 21
0.225449 -0.013063 -0.317118 249 5 -53
0.096805 -0.123724 -0.133764 -3 -255 -1
-0.187602 -0.027012 0.295712 -201 95 125
0.168511 -0.114206 0.124256 209 -143 -21
0.190930 0.005078 -0.174193 53 61 -241
-0.127639 -0.008920 -0.274600 -79 -237 55
0.070179 -0.071873 0.429773 1 -197 163
0.163585 0.038262 -0.094113 69 245 -25
0.198257 0.027149 0.406068 253 35 13
-0.224443 -0.042030 0.047174 -255 7 -1
-0.106479 0.077012 -0.086703 -93 211 -109
-0.044299 -0.024118 -0.425240 -1 241 -83
-0.213433 -0.025834 -0.029083 -217 135 -5
-0.049300 0.134901 0.171534 -5 253 27
0.011299 0.080475 -0.132052 19 231 -109
-0.147149 0.090171 0.152513 -203 155 1
-0.158335 -0.124160 -0.137099 -3 -255 -1
0.200076 0.001521 -0.306057 -45 -249 35
-0.140928 -0.098506 0.359273 3 -253 -23
-0.187739 -0.082323 -0.473735 -33 -59 -247
0.068915 -0.123537 0.027775 -1 -255 -1
-0.148885 -0.133180 -0.034971 -3 -255 -1
0.069591 0.119021 -0.039309 13 253 -33
-0.204680 0.005066 -0.210421 -133 165 143
0.110710 -0.067325 0.435255 7 -191 169
0.203508 -0.030577 0.431754 245 -59 41
0.164263 0.007681 -0.442185 211 143 1
-0.086990 -0.123590 0.040946 -1 -255 -1
0.108939 -0.002243 -0.358481 7 247 -67
-0.087479 -0.006783 -0.372079 -1 255 -11
0.189841 0.032339 -0.075746 99 233 -19
-0.123420 -0.095097 0.295972 -1 -181 181
-0.045240 0.028830 -0.237826 -15 247 -59
-0.141970 0.094820 0.202077 -181 179 17
0.139776 -0.102574 -0.210854 171 29 -187
-0.132435 0.099804 0.217774 -153 197 49
0.134414 -0.076871 0.421700 13 -193 167
-0.172927 -0.004549 0.293407 -189 55 161
-0.021267 0.064785 -0.163740 -27 231 -107
0.213161 -0.005263 0.416173 9 -255 9
0.205537 0.030505 0.125295 247 65 -7
-0.224700 -0.049330 0.096044 -255 7 -1
0.128973 0.129312 0.182995 117 225 33
0.187591 0.050799 0.145128 95 237 -15
0.047929 -0.123543 -0.109626 -3 -255 -1
-0.131679 0.055804 -0.094996 -157 189 -69
-0.079851 0.122128 0.108832 -11 255 -7
-0.206259 -0.001137 -0.310687 -41 223 -117
0.066838 0.117306 0.205317 1 253 31
0.006675 0.121160 0.032658 1 255 -9
0.058400 -0.111655 0.465349 7 -63 247
-0.090842 -0.123530 -0.157177 3 -255 -1
-0.012700 -0.066970 -0.436528 7 47 251
0.004189 0.027325 0.482654 -1 -119 225
0.195738 0.046907 0.130137 95 235 -17
-0.087958 0.131142 0.188866 1 1 255
-0.204827 -0.031074 0.205758 -11 -111 229
0.224071 0.006870 0.347291 109 217 79
-0.165971 -0.121376 0.257454 3 -253 31
0.036056 0.062689 -0.164938 33 229 -107
-0.052421 -0.061818 0.440180 -1 -187 173
-0.140465 0.031233 -0.185148 -47 249 -31
-0.219848 -0.033576 -0.190168 83 -95 -221
-0.001649 0.128190 -0.067953 -11 255 1
-0.102729 -0.107848 0.455909 -223 53 -113
0.085818 -0.051076 0.239855 167 -193 5
-0.195412 0.051755 0.307695 -61 247 3
-0.193358 -0.067289 0.415940 -229 -97 59
0.143207 0.087161 0.233887 155 199 39
0.142445 0.076425 0.076232 185 173 -23
-0.129473 -0.009617 -0.378562 -7 241 -83
0.045667 -0.094712 -0.237573 15 3 -255
0.027407 0.119906 -0.024424 -1 255 -1
-0.103879 0.114619 0.201282 -139 213 17
0.184526 0.046655 0.072052 99 233 -19
-0.238598 -0.087282 0.210993 -253 -37 -9
-0.214271 -0.032276 -0.158779 -97 235 -9
-0.143000 0.072737 0.048417 -169 191 -15
-0.098159 0.049433 0.486264 -7 223 -123
-0.104974 0.040452 0.435555 15 -249 -51
-0.043978 0.053444 0.381297 -5 251 41
0.193454 0.049228 0.158615 95 237 -15
-0.104750 -0.034216 0.454767 87 -127 203
0.164038 -0.124118 -0.080256 -3 -255 1
0.143194 0.022697 0.374103 3 -255 23
0.134358 -0.133701 -0.211238 -5 -255 7
0.166444 -0.106704 0.278670 255 -1 3
0.205357 -0.109998 0.185969 129 -53 -213
-0.066569 -0.104257 -0.437509 -1 -239 -87
0.193593 0.049861 0.171123 89 239 -9
0.084917 0.015739 -0.290220 9 247 -67
-0.007596 0.124198 0.124226 -1 255 -9
-0.072298 0.090557 0.256875 1 253 33
-0.018442 -0.114032 0.364227 -1 -255 5
0.202445 0.006805 -0.170208 251 41 23
0.140546 0.000207 0.463012 1 1 -255
-0.102719 -0.045627 0.250245 -1 -127 -221
-0.021747 -0.123386 -0.022197 -1 -255 -1
-0.079236 0.099557 -0.067454 -79 217 -107
-0.110769 -0.045643 -0.296876 -253 19 -25
-0.014205 0.037731 -0.225797 7 253 29
-0.153483 -0.114202 -0.410466 -1 -249 -53
-0.130496 -0.114056 -0.408647 -7 -251 -47
0.163660 0.037197 0.432944 -21 -249 -45
0.170176 -0.082804 -0.471080 11 1 -255
-0.166125 0.004467 -0.319901 -29 245 -63
0.243650 0.002949 0.278333 -113 -221 55
0.166083 -0.117071 -0.394383 11 -251 -41
0.202220 0.046536 0.278481 251 43 5
-0.200386 0.040781 0.342939 -249 49 17
0.040921 -0.066327 -0.237503 15 3 -255
0.093726 -0.123656 0.052810 -3 -255 -1
0.017778 -0.054139 -0.487786 3 229 -113
-0.156590 -0.028697 0.470182 1 1 255
0.043455 -0.039208 -0.303726 1 -251 49
0.012160 0.127275 -0.027822 161 197 1
0.188922 -0.089910 0.294753 255 3 -1
0.008543 0.104033 -0.082751 9 229 -111
0.153262 0.067777 0.242467 243 73 21
-0.204662 0.013844 0.371397 247 -59 -23
-0.052565 0.028441 0.483582 -1 -119 225
0.173243 -0.016427 -0.408042 253 3 -23
0.207953 0.023361 0.222888 249 51 3
-0.222227 0.017269 0.302653 -115 227 -1
-0.138260 0.017901 -0.441532 -1 -1 -255
0.022182 -0.036913 -0.292588 1 -251 49
0.079990 0.006299 -0.330291 -1 253 37
0.224580 -0.046106 0.055485 255 7 -1
0.244217 -0.004147 0.347016 99 215 95
0.150825 0.038763 0.435162 29 249 43
-0.054238 -0.058343 -0.437255 9 43 251
0.164434 -0.110218 -0.427592 1 243 79
0.214479 -0.087517 0.090677 235 -101 -1
0.208541 -0.030092 0.408843 241 -59 59
-0.130615 0.020620 -0.262352 -23 249 -53
-0.041280 0.120428 0.011644 -1 255 -7
-0.027965 -0.131130 0.192252 -1 -255 7
-0.146880 -0.009149 -0.440216 1 21 255
-0.126699 -0.133198 -0.184357 5 -255 7
0.156256 -0.109807 0.240792 5 -253 23
0.211759 0.005166 0.246141 119 189 -123
-0.155928 0.033620 0.455103 -23 249 47
-0.200408 0.001442 -0.306466 45 -249 35
0.145938 -0.066131 0.433617 13 -193 167
0.080011 -0.123493 -0.162678 -3 -255 -1
-0.239718 -0.083118 0.212907 -227 -95 65
-0.113615 -0.096429 0.292700 -1 -247 65
0.127677 -0.124119 0.133579 -3 -255 -1
0.208785 0.013073 0.352698 -113 -211 -87
0.019276 0.118649 0.194423 1 253 31
0.142992 0.093111 0.160056 183 177 -23
-0.082674 0.091445 -0.081814 -105 213 -95
-0.169683 -0.112918 0.370141 -125 -1 223
0.145434 -0.112633 0.243954 -255 11 1
-0.203702 0.036934 0.306670 251 -43 -9
-0.145025 -0.133027 -0.110410 -3 -255 -1
0.158207 0.052187 0.017220 45 249 -23
-0.192812 -0.061304 -0.477356 193 35 163
-0.220082 -0.033942 -0.141117 -97 235 -9
-0.200873 0.022576 0.389208 -251 43 25
-0.219302 -0.071929 -0.096451 -247 -65 -1
-0.205607 -0.103911 0.096999 -223 -125 1
-0.206895 0.013196 0.021997 -247 65 -7
0.062988 0.026689 -0.244489 9 249 -53
0.188354 -0.079080 0.299897 255 3 -1
-0.049156 -0.008130 0.462772 -1 -1 255
-0.208425 0.015093 0.081504 -247 65 -7
-0.040878 0.023495 -0.258561 -9 247 -61
-0.163840 0.039352 -0.082748 -69 245 -25
-0.195340 -0.045575 -0.449949 -227 109 -43
-0.058147 -0.052667 -0.483191 -5 223 -123
0.107724 -0.070391 0.431016 7 -191 169
0.211477 0.009833 0.459030 255 3 9
0.072778 -0.104151 -0.438964 1 -239 -87
0.220542 -0.068284 -0.073369 247 -65 -1
0.064831 -0.128798 0.447466 -191 -135 -103
0.206212 0.013227 -0.000578 247 65 -7
-0.006737 0.070590 -0.153835 -11 231 -109
0.098082 0.121004 0.122726 -1 255 -3
-0.074625 0.037498 0.459518 -15 251 45
0.126060 0.046371 0.482630 7 223 -123
0.013361 0.125970 -0.063606 215 139 -1
0.108114 0.028347 -0.234467 23 249 -51
0.164098 0.037466 0.429321 21 249 51
0.123077 0.018825 -0.431405 7 195 165
0.152195 0.050300 -0.025407 185 171 -33
0.184101 -0.072678 -0.470198 11 1 -255
-0.090615 0.013713 -0.298475 -7 247 -63
0.069619 -0.039887 -0.305846 1 -251 49
-0.101866 -0.116499 0.486598 -1 255 -1
-0.203901 0.014109 -0.066759 -247 65 -7
-0.213965 -0.008841 0.212386 -249 55 11
0.058163 0.003973 0.359446 -1 -255 21
-0.106547 0.032910 -0.209404 -47 249 -27
-0.022207 -0.123094 -0.096967 -1 -255 -1
0.071001 0.013843 -0.298623 1 247 -59
0.212929 -0.090851 0.061909 235 -101 -1
-0.072704 0.000695 -0.217272 1 -255 1
-0.239604 -0.083171 0.212200 -227 -95 65
0.017786 -0.123532 -0.016200 -1 -255 -1
-0.187808 -0.123637 -0.079865 -3 -255 -1
0.064310 -0.033334 -0.447419 1 229 -113
-0.161244 -0.015752 -0.388840 -35 239 -83
-0.003181 -0.038822 -0.460780 -5 225 -121
0.124467 0.087679 0.018768 193 163 -31
-0.071002 0.038494 0.455090 -15 251 45
-0.182093 0.038298 -0.040337 -69 245 -25
0.109922 -0.023344 -0.288929 253 19 -25
-0.165645 -0.081436 0.412698 -19 -239 89
0.061340 0.117939 -0.046213 41 235 -91
0.093293 -0.109778 0.480618 249 -57 -1
0.089090 -0.116843 0.461487 111 -231 -1
-0.081167 0.133498 0.182764 -3 255 19
-0.203112 0.010842 0.396313 -245 63 29
-0.081979 -0.099345 0.181402 1 -71 245
-0.194307 0.036630 -0.000820 -99 233 -19
-0.018444 -0.025396 0.447407 -1 1 255
0.208334 -0.098568 0.161998 221 -127 1
-0.026215 -0.041463 -0.463992 -3 223 -123
-0.073623 0.091693 0.250557 1 253 33
-0.123310 -0.123979 0.058168 3 -255 -1
0.080450 0.121563 0.087903 19 255 -7
0.030297 0.040489 0.490692 -1 -127 221
0.134679 0.029830 0.484551 -1 -119 225
0.209540 0.016333 0.148031 247 63 -1
0.166136 0.058837 0.301786 43 249 39
0.158776 0.002323 -0.331069 27 243 -71
-0.201724 -0.026046 -0.362965 -213 137 -29
-0.009253 0.024388 -0.255788 -5 247 -63
0.082453 0.059449 0.338296 13 205 151
-0.217886 -0.024064 -0.194934 -123 119 189
-0.015242 -0.114153 0.374860 -1 -255 5
-0.216604 -0.051653 -0.352510 -251 -29 -41
0.235277 -0.056996 0.392466 83 49 235
0.198265 -0.076992 -0.452416 239 -75 -51
0.165870 -0.002998 -0.443120 143 29 -209
0.084980 0.029168 -0.226871 9 249 -53
0.049478 -0.130039 -0.200293 -3 -13 255
0.015838 -0.120296 0.461859 -1 -235 99
0.076088 0.034850 -0.213801 73 225 -97
0.069448 0.123221 0.134999 13 255 -7
0.147930 0.068132 0.049265 179 179 -25
-0.017326 -0.123899 0.093473 -1 -255 -1
0.188840 -0.002673 -0.325549 -109 -229 23
-0.158591 0.044972 0.393293 -29 251 41
0.156138 0.037555 0.438748 29 249 43
-0.095025 0.078831 0.282538 1 253 33
0.112082 0.103417 0.237690 139 213 17
-0.118464 0.073125 0.305998 1 1 255
-0.105662 -0.059960 -0.381020 -255 13 -15
0.186756 -0.101588 -0.437431 167 -175 -79
0.015748 -0.014017 0.457621 -3 -255 9
-0.028164 -0.123957 0.083225 -1 -255 -1
0.063723 -0.123423 -0.044147 -3 -255 -1
-0.111066 0.035772 0.488502 1 -135 217
-0.048289 -0.123194 -0.070632 3 -255 -1
0.187747 -0.009266 -0.349132 -65 -235 73
0.207714 -0.016683 -0.141888 251 45 -7
-0.153965 -0.133121 -0.037099 -3 -255 -1
0.166795 -0.061392 -0.186414 117 55 -219
-0.215749 -0.091553 0.044615 -19 -255 1
0.104655 0.112675 0.016505 151 205 -19
0.080219 -0.122725 -0.186162 -1 -255 -1
0.025286 0.054537 0.376695 -1 251 41
-0.169439 0.016500 -0.263713 39 -251 5
-0.012841 -0.123174 -0.141534 3 -255 -1
0.064382 0.024954 -0.251694 9 249 -53
0.065222 -0.123078 -0.187463 -1 -255 -1
-0.145480 0.112877 0.186192 -207 149 -7
0.060358 0.117890 0.199705 1 253 31
0.034181 0.043947 0.428270 3 251 45
0.188733 -0.083169 0.305673 255 3 -1
-0.163255 -0.115559 0.338442 -15 -255 17
0.215713 0.008080 0.198385 249 53 1
0.086287 -0.031039 0.447257 1 1 255
-0.121849 -0.123916 -0.054266 3 -255 -1
0.082646 0.118046 0.200016 -7 253 25
0.087160 -0.030954 -0.443128 1 229 -113
-0.020076 -0.124027 0.079113 -1 -255 -1
0.194073 -0.059792 0.425584 229 -101 49
0.054469 0.105689 -0.068649 49 223 -113
0.206335 0.024817 0.306318 115 227 -1
0.166408 0.024206 0.318466 255 -1 -1
0.150334 0.022602 -0.237440 -39 -249 33
0.119241 0.058356 -0.109846 137 197 -83
0.086916 -0.030504 -0.441087 1 229 -113
-0.138116 -0.002768 -0.449089 15 11 -255
-0.066872 -0.088369 -0.469102 -11 -177 -183
0.190173 0.053413 0.244388 79 243 -9
-0.144128 -0.133454 -0.034104 -3 -255 -1
0.007363 -0.123625 0.026411 -1 -255 -1
0.034452 -0.123239 -0.152402 -3 -255 -1
-0.238638 -0.002825 0.351160 -99 215 95
0.012435 0.050075 0.398540 1 -249 -51
-0.193621 0.031286 -0.066868 -99 233 -19
-0.158738 0.039060 -0.099703 -49 247 -37
-0.196810 -0.119305 0.113088 -219 -131 -1
0.207375 -0.008298 -0.196346 233 89 55
0.046292 0.065382 0.312072 3 253 31
0.066045 0.122772 0.119933 13 255 -7
-0.059173 -0.123454 -0.054607 3 -255 -1
0.067370 0.102047 -0.070354 59 223 -111
-0.207973 0.021956 0.187189 -249 59 -3
-0.092838 0.134141 0.170885 -3 255 19
0.064891 -0.027358 -0.435082 -1 233 -103
-0.136969 -0.100428 0.373717 1 -253 -29
0.077985 0.118588 0.196684 1 253 31
0.021975 0.094788 -0.100694 9 229 -111
0.175374 -0.018246 0.470094 1 1 255
-0.205061 -0.104434 0.166237 -221 -127 1
-0.202098 0.001013 0.467658 -1 -141 213
0.207593 0.008592 0.003986 251 45 -7
-0.014291 -0.123403 -0.056986 -1 -255 -1
-0.158094 -0.084863 0.404727 -23 -235 95
-0.056973 0.064941 0.321074 -7 253 29
0.226133 -0.007773 -0.219267 251 1 43
0.075975 -0.064320 -0.489866 9 -245 -71
-0.010967 -0.123947 0.112683 -1 -255 -1
-0.214851 -0.085867 -0.129945 -239 -91 -1
0.211371 -0.005473 0.073305 253 33 -7
0.212176 0.016917 0.339164 -113 -211 -87
-0.019164 0.117188 -0.060625 -243 77 -1
-0.198524 -0.115914 -0.138798 -219 -131 -1
-0.126772 0.026894 -0.229883 -47 249 -27
0.205277 0.027366 0.290587 251 43 5
-0.217151 -0.025416 -0.193413 123 -119 -189
0.122521 -0.124233 0.003730 -3 -255 -1
0.218080 -0.077079 -0.123991 247 -65 -1
-0.039761 -0.124071 0.096148 -1 -255 -1
0.061331 -0.125160 0.453582 -187 -173 -1
0.019895 0.039451 0.454157 -1 251 45
0.172968 0.006636 -0.304891 45 249 -35
0.058562 0.102100 0.242215 1 1 255
0.100060 -0.093926 0.283814 -1 -181 -181
0.079441 0.055694 0.358935 19 251 41
0.201017 0.022922 -0.070242 237 93 -9
-0.048107 0.053589 0.380626 5 -251 -41
-0.115278 0.107708 0.046782 -207 145 -29
0.205870 0.007725 0.368931 249 55 13
-0.203194 0.014440 0.379877 -247 59 23
0.241186 -0.029682 0.381367 123 55 217
0.054377 0.120277 0.009072 -1 255 -5
0.005494 -0.031425 -0.446382 -1 231 -109
-0.200771 0.050437 0.308198 -61 247 3
0.060075 -0.002680 -0.359271 -1 253 33
-0.079510 0.133938 0.179670 -3 255 19
0.009899 -0.131614 0.192197 -1 -255 7
-0.107356 -0.003418 -0.361919 -7 241 -83
-0.063869 -0.123907 0.135834 -1 -255 -1
-0.005403 -0.123111 -0.131033 -1 -255 -1
-0.201803 -0.110488 0.161546 -221 -125 3
0.015255 -0.117379 -0.200470 1 -255 -3
-0.171568 0.055006 0.105206 -131 219 -19
-0.111956 0.077175 0.300734 3 253 27
0.151732 -0.100807 -0.453543 -7 -239 -89
0.048955 -0.123898 0.054921 -1 -255 -1
-0.179882 -0.097882 -0.460436 -133 -201 -83
0.167137 -0.124203 -0.108024 3 -255 -1
0.151504 -0.133692 0.109080 3 -255 -1
0.209476 -0.010910 -0.032494 253 33 -7
0.117225 0.091612 0.249667 -5 253 27
-0.096514 0.114320 -0.025256 -155 181 -91
-0.230139 0.002105 -0.291774 -27 245 -67
0.148883 -0.133635 0.157097 3 -255 -1
0.144138 0.013560 -0.288983 19 249 -51
0.138403 0.011698 -0.423771 7 195 165
0.203738 0.008317 0.388207 245 63 29
-0.187597 -0.042121 -0.446095 -43 241 -69
-0.122908 0.051605 0.374378 3 251 45
-0.205986 0.009183 -0.228111 -85 229 -73
0.028666 0.007372 0.470165 -3 -255 -11
-0.223577 -0.055749 0.065635 -249 -59 1
-0.092169 0.039557 0.443444 -15 251 47
0.206724 0.019315 0.478128 -1 -121 225
0.007700 0.128105 -0.066234 11 255 1
0.032824 -0.049336 -0.238083 15 3 -255
-0.242171 -0.000475 0.342037 -109 217 79
0.146671 -0.085794 -0.202867 117 55 -219
-0.211103 0.006139 -0.218788 -139 183 109
0.166200 -0.111743 0.316059 255 -1 -1
0.190247 0.017751 -0.215587 47 249 -29
-0.145290 0.018627 0.469798 1 1 255
-0.152913 -0.113926 0.362057 -15 -255 17
-0.065509 0.060751 -0.156747 -65 225 -103
-0.088895 0.072017 -0.118429 -105 213 -95
-0.031635 0.005927 -0.328134 -1 255 -15
-0.021328 0.040100 0.448171 -1 249 51
-0.189740 0.051767 0.180049 -89 239 -9
-0.186697 0.051063 0.136634 -95 237 -15
-0.185100 0.037626 0.420785 29 -251 -41
-0.146200 -0.133310 0.074255 -3 -255 -1
0.223284 -0.033363 0.170770 233 103 5
0.110773 -0.038141 0.456614 -99 -109 209
0.063492 -0.023491 -0.422754 -1 241 -83
-0.004687 0.039820 0.452714 -1 251 45
0.201846 0.012311 -0.225639 -85 -229 73
0.184040 0.040551 0.477408 13 215 -137
-0.113506 -0.095210 -0.467648 -13 -191 -169
-0.017337 0.044010 0.433974 -1 249 51
