ply
format ascii 1.0
element vertex 1205
property float x
property float y
property float z
property uchar red
property uchar green
property uchar blue
end_header
-0.207721 -0.007689 0.296779 239 -91 13
-0.028705 0.106031 -0.121442 -9 231 -109
-0.205024 -0.046450 0.113756 -255 -17 3
0.077165 -0.062125 -0.491702 51 5 -249
0.083383 0.031166 0.462266 47 167 187
-0.136951 -0.048931 -0.349663 -17 -161 197
-0.136993 0.107707 0.247307 -187 169 33
0.118274 0.092895 -0.131250 29 225 -115
0.207017 -0.041812 0.224427 -253 -23 7
-0.007871 0.144609 0.129812 -7 255 3
0.200140 0.008845 -0.107430 237 93 -5
0.159380 0.018351 -0.276188 -57 -243 55
-0.147703 0.023643 -0.310133 -21 249 -55
-0.129674 0.016677 -0.339946 -25 245 -67
-0.199059 -0.107098 0.415294 -243 -49 57
-0.190870 -0.125467 -0.374664 -1 -1 255
-0.155293 -0.016285 0.454187 -73 187 157
0.158106 0.046912 0.348580 219 125 37
0.015013 0.117444 -0.097385 7 235 -97
-0.151603 0.095826 0.128157 -227 115 13
0.142384 0.125736 0.064774 -193 -165 -7
0.154760 0.093092 0.089457 229 113 11
-0.039172 0.140711 0.000403 -5 255 -21
0.181266 0.038246 0.175793 227 115 15
-0.062128 -0.014841 -0.363679 -1 -253 33
0.025894 0.144547 0.071369 7 255 -7
-0.154932 0.062306 0.313457 -221 123 33
0.126309 0.121193 0.253172 -179 -179 -35
0.131811 0.116855 0.246920 179 179 35
-0.152390 0.069120 0.282738 -227 111 29
-0.023053 0.035979 0.466083 -11 167 193
0.200345 0.012410 0.000883 237 93 3
-0.164644 0.075547 0.048287 235 -97 -1
-0.102575 0.139424 0.084525 -45 251 -3
0.096977 0.121469 -0.072594 27 237 -89
-0.046167 0.074629 -0.179920 -9 221 -125
0.006316 0.096267 -0.142569 9 225 -119
-0.052541 0.142492 0.029731 -5 255 -9
0.177306 -0.035473 -0.410634 219 23 -127
0.145936 0.008522 0.451272 119 43 221
-0.057848 0.116966 -0.094043 -13 235 -99
-0.005715 0.138945 -0.027214 5 -255 21
0.116132 -0.139713 -0.424450 -5 -255 -5
-0.130333 -0.057118 -0.210044 -7 -147 -209
0.168972 0.064571 0.091406 229 111 9
-0.157475 -0.109003 0.453573 -91 -133 199
0.170307 0.053510 0.177410 75 243 -17
-0.156093 0.097350 -0.017355 -235 97 1
-0.134273 0.032140 -0.281808 -31 245 -65
-0.132700 -0.056129 0.454607 35 -1 -253
-0.004970 0.139943 -0.015983 5 -255 21
-0.206568 -0.018897 0.006823 -255 1 3
0.209239 -0.097033 0.066733 245 73 -1
-0.126906 -0.020737 -0.304375 -3 -247 67
-0.054689 -0.117640 0.441132 11 -237 -91
-0.029087 -0.095110 0.494490 -7 -137 215
-0.184889 0.024673 -0.236789 -215 133 -33
-0.125535 0.120542 0.260372 179 -179 -35
0.013934 -0.115616 0.435084 -3 -241 -81
0.010784 0.144469 0.127772 -7 -255 -3
0.019616 -0.018564 -0.390429 -1 -253 33
0.207304 -0.051912 0.396640 253 3 31
-0.150713 -0.018660 -0.297460 -1 -249 57
0.203267 -0.075447 0.157016 253 37 1
-0.005689 0.117297 -0.098833 -7 235 -97
-0.072645 -0.020370 0.483006 -27 191 167
-0.188056 0.035899 0.013520 -145 209 -5
-0.052387 0.081880 -0.165911 -9 225 -119
0.179374 0.034767 0.282156 -135 -215 -11
0.054402 0.138359 0.209603 -23 -253 -21
0.149409 0.037104 -0.259437 29 245 -67
-0.000877 0.145404 0.090117 -7 255 3
-0.204607 -0.073116 -0.037551 -253 -33 7
0.016085 0.106213 0.401516 1 -237 95
-0.120903 0.135278 0.116816 -45 251 7
-0.029081 -0.010699 -0.328491 -1 -253 33
-0.186082 0.022255 0.396030 -127 219 29
-0.097309 0.058907 -0.199335 -29 221 -125
0.205764 -0.014841 0.240524 253 33 -15
-0.004519 0.124769 0.340902 -5 251 43
0.116712 0.081651 -0.153641 29 225 -115
-0.055939 0.119949 0.365971 -11 253 33
0.021122 0.142253 0.174792 -9 -255 -13
0.203058 -0.067587 0.139324 253 -27 -3
0.205263 -0.031177 0.122717 255 13 5
0.196796 -0.132386 -0.103803 167 -193 13
0.123362 0.079277 0.396828 199 141 71
-0.130568 -0.138409 -0.450943 -5 -255 -15
0.016300 0.134874 0.265277 -9 -253 -27
-0.066942 -0.129718 0.413588 181 -179 23
0.004099 0.137926 -0.033196 7 249 -53
-0.208283 -0.043604 -0.092911 -255 15 3
-0.179006 0.038380 0.205549 227 -113 -15
-0.202707 0.000158 0.104135 -247 61 5
-0.192636 0.025332 0.154880 -233 101 9
-0.094656 0.063993 0.426997 -51 177 177
0.191253 0.027324 -0.146172 233 -49 -91
-0.061109 0.121290 0.353253 -9 251 47
0.091129 0.040687 -0.269991 13 249 -51
-0.208433 -0.036945 0.246001 253 -21 33
-0.204496 -0.081688 0.142746 253 -39 -1
0.077934 -0.024795 -0.455932 3 -237 95
-0.185961 0.019826 0.409286 -209 135 51
0.110959 0.137856 0.087077 45 251 7
0.094678 0.022211 -0.280588 -5 -243 75
-0.097201 -0.011780 -0.341625 -11 -253 23
-0.145616 0.060732 0.366765 -209 133 61
0.149557 0.127299 0.421362 -255 1 1
-0.121063 0.118502 -0.073220 -39 237 -87
-0.098520 0.139720 0.098457 -23 253 5
0.062218 -0.113436 0.427652 -11 -237 -91
0.203715 -0.030881 -0.232370 21 -197 -159
0.124640 0.134242 0.138909 -45 -251 -7
-0.032829 0.019219 -0.368951 -23 245 -71
0.107669 0.038589 0.448253 75 165 179
0.152960 -0.109442 -0.441383 181 -3 -181
0.166073 0.042531 -0.215544 -241 69 47
-0.044679 0.134212 0.263365 -9 253 27
0.197458 -0.135368 -0.157113 207 -147 13
-0.168682 0.065140 0.133742 -239 89 17
-0.156501 0.056958 -0.186449 -51 217 -123
-0.193811 -0.080942 -0.199559 -13 -67 -245
0.012054 0.045051 -0.254793 15 119 225
0.098037 0.124521 0.433818 1 255 -23
-0.065308 0.012002 -0.384622 -33 243 -71
-0.071917 0.017316 0.471188 -49 93 233
0.110357 0.128732 0.244309 43 249 27
0.038148 -0.001341 -0.434553 1 245 -67
-0.005141 -0.005754 -0.293083 -1 -253 33
0.192951 -0.132832 0.140082 -219 -131 1
0.041288 -0.117774 0.441544 -1 -241 -83
0.073054 0.140973 0.032677 21 253 -7
0.203803 -0.115465 0.115424 217 -133 3
-0.220102 0.046465 -0.117046 97 13 235
0.150160 0.100330 0.141287 215 137 19
-0.206584 -0.021079 0.041389 -255 13 5
0.206793 -0.016480 -0.097884 251 49 -1
0.206448 -0.091635 0.119911 -209 -87 119
0.041641 -0.133203 -0.492794 1 -253 -25
-0.152438 0.093919 0.126354 -227 115 13
0.203075 0.003911 0.032431 247 61 5
0.135871 -0.025302 -0.248305 21 -197 -159
-0.071149 -0.051821 -0.487977 -35 181 -177
-0.153741 0.055945 0.343283 -211 137 41
0.206477 -0.097901 -0.146706 255 -13 1
-0.002372 0.141481 0.002021 5 -255 21
0.100474 0.041097 0.447011 53 157 195
0.204415 -0.078448 0.047283 251 41 -1
0.125786 0.133685 0.019220 -45 -251 15
0.162955 0.031136 0.406710 47 249 31
-0.204709 -0.084564 0.205955 -255 13 -13
-0.088776 0.046895 -0.223022 29 -221 125
-0.208789 -0.109151 -0.122833 -249 -55 -1
0.161901 0.082400 0.024114 235 97 1
-0.183997 -0.035981 -0.397527 -227 33 -111
0.163684 0.044802 0.324529 -207 -147 -27
-0.164061 0.077374 0.035782 -235 97 1
-0.041239 0.061889 -0.202536 -9 221 -127
-0.037501 0.043222 -0.244951 -19 233 -101
0.180500 0.049458 -0.154367 211 135 -51
-0.203419 -0.072657 0.150415 -253 37 1
0.108688 0.137850 0.102006 -45 -251 -7
-0.201856 -0.116824 0.161684 225 119 -1
-0.190958 0.014514 0.401349 -213 137 29
-0.111068 -0.104028 0.475214 -63 -147 199
-0.179661 0.039950 0.008421 135 215 -31
0.162492 -0.020082 -0.303771 1 -249 57
-0.163720 -0.032922 -0.338434 -1 -211 143
0.139415 0.023433 0.447798 -5 245 67
0.137383 0.076384 0.357386 209 135 61
0.184094 0.033725 0.205917 155 201 3
-0.197427 -0.002479 0.125090 225 -57 105
0.185032 -0.061873 0.443299 199 -3 159
0.163554 -0.022195 0.455506 103 179 149
0.077508 0.141385 0.129336 23 253 5
-0.075114 0.036366 -0.294603 -13 249 -51
-0.194741 0.013380 0.364152 -213 139 11
-0.031238 -0.018127 0.484561 -15 195 163
-0.203701 -0.063604 -0.377969 -229 57 -97
-0.081100 0.103291 -0.118886 27 -231 105
0.240389 0.053118 -0.116541 117 223 -39
-0.045506 0.010664 -0.393429 -23 239 -83
-0.075726 -0.139429 0.398266 147 -207 17
0.109320 0.123517 0.421029 1 255 -23
-0.167341 -0.002557 -0.086244 251 41 -9
0.076414 0.141171 0.041932 -21 -253 7
0.205899 -0.012870 -0.103153 251 49 -1
0.207316 -0.090688 0.129618 -241 -81 -5
-0.196689 -0.126401 0.184438 -227 -117 -1
0.201587 -0.008789 0.132231 -225 -23 119
0.119776 0.126362 -0.052900 37 247 -49
0.165161 -0.118811 -0.373735 1 -15 255
-0.183782 0.022791 0.386657 145 -207 -31
-0.054872 0.044955 -0.249863 15 131 219
0.143339 0.114965 0.147627 191 167 19
-0.020121 -0.135191 -0.477904 -1 -255 -23
0.204446 -0.019222 0.132887 255 15 -1
0.193869 -0.134652 0.109557 -219 -131 1
-0.027298 -0.123057 0.460481 -5 -201 157
-0.167365 0.038417 0.340335 -119 225 21
-0.162621 0.024254 -0.248106 57 -243 55
-0.205368 -0.007964 -0.076601 -253 39 -1
0.085752 0.034586 -0.296276 31 245 -65
0.034101 0.026460 0.473213 11 89 239
0.199495 -0.110038 0.010487 -147 -209 7
-0.056270 0.011242 -0.391102 -1 245 -67
0.161716 0.045779 0.330276 -199 -155 -33
0.138864 0.101295 0.245101 211 141 31
-0.184828 0.035354 -0.061265 -51 249 -17
0.118031 -0.118385 -0.473997 -111 -5 229
0.108942 -0.080446 -0.477857 119 5 -225
-0.205449 -0.002302 0.304688 223 -123 7
-0.065194 -0.018588 -0.403918 -11 -253 23
0.168206 0.018236 -0.319505 63 243 -47
0.208705 -0.064752 0.243514 255 -13 -7
-0.059488 0.035729 0.462087 -27 169 189
0.159518 -0.029809 -0.333581 1 -211 143
-0.165055 0.034997 0.381006 -113 227 31
-0.187912 0.030945 -0.111417 -239 91 -3
0.011842 0.026982 -0.343161 5 249 -57
-0.029275 0.143891 0.131064 7 -255 -3
0.053452 -0.122137 0.459799 13 -203 155
0.180287 0.039235 -0.104188 235 97 1
0.120507 0.091087 -0.134226 -29 -225 115
0.012563 0.132381 0.291420 -7 -253 -35
0.009741 0.064010 0.441115 11 175 185
-0.208816 -0.024472 0.373932 -255 11 19
0.092363 0.003717 0.455526 -23 -231 -107
-0.082403 0.108019 0.360455 21 -159 -197
-0.146534 -0.102622 -0.195437 11 73 245
0.155612 0.096530 0.029764 229 111 9
-0.160398 -0.055216 -0.442506 -169 19 -189
-0.049913 -0.135161 -0.473273 3 -253 -29
-0.199987 -0.127829 -0.057655 -169 -191 7
-0.037445 0.144608 0.080754 -7 255 -7
0.186783 0.011006 -0.293368 177 181 -31
0.122861 -0.007682 -0.307532 -1 -253 33
-0.205624 -0.053948 0.006518 -255 -23 3
-0.168555 0.055657 0.180790 -231 105 15
0.139570 0.001893 -0.406137 75 227 -85
0.178146 -0.043607 -0.411588 97 201 -125
-0.006866 0.141193 0.197197 -9 255 19
-0.196661 -0.130354 -0.395287 -227 -49 -107
-0.140311 0.019389 -0.325925 -25 245 -67
-0.097395 -0.138864 0.412964 -15 -253 21
0.119381 0.117508 -0.075863 39 237 -87
-0.043625 -0.018063 -0.388789 -1 -253 33
-0.175482 0.040530 -0.143085 243 -79 -1
-0.175073 0.052126 -0.080110 -235 97 1
0.161306 -0.142309 -0.192237 -1 -9 -255
0.089198 -0.112893 -0.480934 93 -41 -235
0.126850 0.135068 0.073478 -45 -251 3
-0.129359 -0.067005 -0.468054 -127 -41 -217
0.104317 0.124831 0.441378 1 -253 23
0.024760 0.019909 -0.371373 23 245 -71
-0.051848 -0.051388 0.485820 -23 61 247
0.071420 -0.135056 0.407177 -181 -179 23
0.041535 0.141986 0.018482 -5 -255 21
-0.149736 0.065675 0.334335 -217 127 43
0.173870 -0.096620 0.444656 -151 49 -199
-0.017784 0.049283 -0.226321 -9 221 -127
-0.001595 0.141321 0.204316 -9 255 19
-0.019937 -0.068515 -0.497660 -7 3 -255
0.020618 0.130527 -0.065907 7 249 -53
-0.079758 0.136329 0.209107 -25 253 21
0.054153 -0.126673 0.322926 -139 185 105
0.190761 -0.103560 0.025268 -147 -209 7
0.169927 0.070458 -0.148351 191 161 -55
-0.209223 -0.012323 -0.276860 -245 69 -5
-0.131067 0.062491 0.407298 -193 139 91
0.156739 -0.075829 0.001227 -217 -133 25
0.193217 0.004612 0.120718 -225 -57 105
0.206485 -0.030955 0.233925 -253 -21 27
0.147518 0.076581 -0.153178 41 225 -113
-0.024522 -0.003435 -0.272918 -1 -253 33
0.001122 -0.007574 -0.307219 -1 -253 33
0.207399 -0.072558 -0.123535 255 -11 9
-0.117611 -0.005406 -0.429499 -21 229 -109
0.185685 -0.041797 -0.347317 17 -161 197
0.047872 0.107839 -0.115851 11 231 -107
-0.188559 -0.078886 0.438002 -191 -17 167
0.095532 0.123225 0.414572 1 255 -23
-0.021888 0.129138 0.313518 -9 253 35
0.060597 0.143251 0.081017 23 253 -5
0.072171 0.004965 -0.405960 33 243 -71
-0.170016 0.063045 -0.029803 235 -97 -1
-0.200041 -0.122390 0.100077 -217 -133 5
0.206797 -0.017936 -0.278219 5 -255 -15
0.205613 -0.066938 -0.377882 -1 255 9
-0.029880 0.141555 0.006794 -5 255 -21
-0.166173 0.060700 0.182410 -233 101 21
-0.131766 0.037521 -0.263435 -29 245 -67
-0.098641 -0.044843 -0.475968 -123 57 -217
0.132734 0.043165 -0.234028 -37 137 211
-0.095752 0.133289 0.227895 -43 251 23
0.114712 0.095119 -0.128157 -29 -225 115
-0.173519 0.055041 -0.180593 185 -163 63
0.000107 0.068819 -0.193735 9 221 -125
0.145733 0.093055 0.228106 211 141 23
0.177332 0.045784 0.180474 -229 -111 -15
-0.131301 -0.014244 -0.385375 -11 -253 23
0.103958 -0.108856 -0.481401 119 5 -225
0.073818 0.041492 0.429669 -51 -105 -227
0.087467 0.097917 -0.129216 -29 -225 115
0.167672 0.068156 0.013453 235 97 1
0.205678 -0.062079 0.407150 251 -5 41
0.023700 -0.133603 -0.483758 1 -255 -23
-0.207552 -0.055888 -0.078584 -255 -21 5
0.166525 0.069844 0.083010 229 111 9
0.101627 0.009267 -0.379596 25 245 -67
0.079224 0.136312 -0.023844 21 253 -19
0.196443 -0.068495 -0.395826 219 21 -129
0.181244 0.037259 0.177761 227 115 15
-0.029520 0.115529 -0.100707 11 -231 107
-0.141419 0.107673 -0.091131 -49 229 -101
0.048113 0.043354 -0.234635 -9 -221 127
-0.194462 0.004996 -0.277653 -197 163 -15
0.119085 0.136121 0.058610 -45 -251 3
0.052872 0.041240 0.456179 29 145 209
0.166508 0.074403 -0.081874 243 73 19
0.071408 0.001111 -0.429884 37 231 -103
0.018387 -0.006836 0.478315 7 -89 239
0.203748 -0.110125 0.218034 -251 41 7
0.064237 -0.131783 0.324235 141 -185 -105
-0.064158 -0.087816 -0.490332 -49 -35 -247
-0.209790 -0.026782 0.275299 -255 9 -3
-0.150586 0.135741 0.447453 1 251 -41
-0.155868 0.128784 0.436807 -255 1 1
-0.182221 0.041306 0.139702 -227 115 15
-0.024210 0.143753 0.141742 -7 255 11
-0.156671 0.018298 -0.335515 -129 209 -67
0.206195 -0.014810 -0.175805 251 49 -1
0.128764 0.114927 0.271123 179 179 35
0.057102 0.118699 0.372368 17 251 41
0.172762 0.053776 0.133920 239 89 17
-0.100663 -0.136928 -0.471605 39 -251 -11
-0.107882 0.128553 0.250058 -43 249 27
-0.111159 0.136905 0.140825 -45 251 15
-0.194605 -0.130974 0.206923 -227 -117 -1
0.208401 -0.031850 -0.126743 255 15 3
-0.033854 0.117214 -0.097207 -13 233 -103
0.110211 0.123255 -0.064316 25 237 -89
-0.139764 0.002402 -0.403357 -77 229 -85
0.151848 -0.043558 -0.224112 21 -197 -159
-0.038898 -0.108679 -0.442323 1 -1 255
-0.205420 -0.049203 0.054381 -255 -19 3
0.167275 -0.075927 -0.088896 -249 -25 -51
0.153821 0.093046 0.108255 -227 -115 -13
-0.131384 -0.124925 0.447711 -15 -245 71
0.117756 -0.139519 -0.437456 5 -255 -17
0.123478 0.135426 0.105367 45 251 7
0.206452 -0.089855 0.120093 231 51 93
0.167749 0.045628 0.287037 213 137 21
-0.085408 0.113082 0.385925 -41 247 47
-0.190653 -0.103598 0.020768 147 -209 7
-0.118716 0.068461 -0.177698 29 -221 125
-0.003556 -0.025211 -0.479848 -3 199 -159
0.204922 -0.003613 -0.072880 251 39 -1
0.204501 -0.080453 -0.051387 251 45 -1
0.203969 -0.026069 0.399455 -241 -51 -65
-0.069527 0.035831 -0.297555 -5 249 -51
-0.042662 0.073266 0.429629 -29 173 185
0.201348 -0.116491 0.232531 243 -79 3
-0.192890 -0.139385 0.021484 -31 -253 3
-0.129145 0.130625 0.173727 139 -213 -19
0.138581 -0.000375 0.455226 121 7 225
0.181061 0.041025 0.016455 51 249 -13
0.161767 -0.026606 -0.040202 -251 43 -5
0.205810 -0.091000 0.195512 247 61 5
-0.185098 0.039302 0.037306 -217 135 3
0.083047 0.114331 0.382071 45 227 105
0.018881 0.140239 -0.009784 -5 -255 21
0.204220 -0.001593 -0.092885 251 39 -1
-0.110982 0.074308 -0.168697 29 -221 125
-0.052778 0.143649 0.060785 -7 255 -7
0.201400 0.006354 -0.076860 237 93 -5
-0.122568 0.120006 0.411516 1 255 13
-0.137247 -0.092692 -0.454871 -161 13 -197
-0.058934 0.126803 0.315466 19 -251 -35
0.203621 -0.008550 0.201745 -247 -65 -5
-0.206026 -0.028611 0.100609 -255 13 5
0.049359 0.133112 -0.051084 5 249 -55
0.021228 0.095950 0.408893 -11 -193 -167
-0.112366 0.100625 0.384605 -157 199 35
0.049427 0.143113 0.049758 7 255 -7
0.083181 0.125085 0.310218 19 253 31
0.196639 0.019472 0.064498 233 101 3
-0.181340 -0.082654 0.445288 -161 -19 197
0.182376 -0.102296 -0.004246 -29 -253 9
-0.078262 -0.050247 -0.485400 29 -223 121
0.155843 0.032200 0.420072 101 229 49
0.195407 -0.058826 0.112527 -231 -23 105
0.195378 -0.136078 -0.129419 213 -139 11
0.097913 0.054485 0.435584 51 173 181
-0.173329 -0.102721 -0.058722 29 -253 7
-0.027572 0.059104 -0.208955 -9 221 -127
0.038491 0.072377 0.431347 27 173 185
0.135931 0.090180 0.325738 211 137 47
-0.205141 -0.006689 -0.044824 -253 39 -1
0.131837 0.081707 -0.148541 41 225 -113
0.056279 0.101453 -0.128140 -9 -231 109
-0.179377 0.028509 0.371716 -141 211 19
-0.208480 -0.070582 -0.158894 -255 -21 9
-0.104734 -0.027092 -0.466745 -55 189 -163
0.020557 0.129209 0.312759 -9 -253 -35
0.186832 0.036425 -0.013260 217 135 -5
0.146387 0.122832 0.028357 221 125 7
0.145151 0.024737 -0.254831 -19 -249 55
-0.175861 -0.111611 -0.414183 -207 7 -147
0.017591 0.028747 -0.335905 5 249 -57
0.157461 0.072832 0.220047 -229 -111 -23
-0.012146 0.022393 -0.362649 -5 249 -57
-0.207838 -0.060415 -0.117466 -255 -21 5
-0.178864 0.032405 -0.233289 -189 163 -45
0.027241 0.133527 0.272501 -9 -253 -27
0.163078 0.012523 0.423267 13 -23 -253
-0.177081 0.027835 0.386292 145 -207 -31
-0.209124 -0.057170 0.244516 255 13 7
-0.067187 -0.135753 0.372206 181 -179 23
0.002420 0.137976 0.238814 -9 -253 -27
0.011916 0.025496 -0.348595 5 249 -57
-0.123209 0.073656 0.389591 -63 -145 -201
0.125134 0.049029 0.425873 133 145 163
0.082388 -0.014190 -0.357679 1 -253 31
-0.192201 -0.107958 -0.087840 147 -209 7
0.178934 -0.104762 -0.104980 -29 -253 7
-0.205175 -0.118126 -0.070838 -249 55 -3
-0.062964 0.071098 0.429110 -27 175 183
-0.197935 0.005528 0.130947 225 -57 105
-0.208727 -0.055185 -0.125247 -255 -21 5
-0.189473 -0.064972 0.437997 -195 5 165
0.128718 0.026062 0.448951 103 157 173
0.163485 0.075854 0.134741 229 109 19
0.136292 0.034423 0.419101 7 -135 -215
-0.100404 -0.138316 0.415037 -15 -253 21
0.152886 0.095581 0.140073 215 137 19
-0.044318 -0.133143 -0.488632 1 -255 -23
-0.104710 0.059215 -0.197449 29 -221 125
-0.014814 0.074423 -0.182875 -9 221 -125
0.187477 0.015592 -0.174074 -31 7 -253
0.117839 0.111832 0.331726 185 167 53
0.204470 -0.073666 -0.034160 253 -33 7
-0.179872 0.044368 0.073705 -59 247 -13
0.154614 0.071014 0.254777 227 111 29
0.056566 -0.047686 -0.484591 -15 -219 129
0.109407 -0.123335 0.384620 219 129 -15
0.198680 0.007929 0.221371 247 65 5
-0.182068 0.019086 -0.275841 -185 171 -31
-0.078931 -0.045142 0.491908 -41 -7 251
0.210155 -0.106292 0.054953 249 -59 1
-0.207814 -0.095044 -0.183638 -253 -13 31
-0.012197 -0.007167 -0.302069 -1 -253 33
-0.164883 0.032001 0.395796 -111 225 47
-0.204754 -0.064236 0.025284 -253 -31 3
0.034344 0.141418 0.009439 5 255 -21
0.088984 0.134587 -0.028914 -25 -249 51
-0.074141 0.088336 -0.151008 -29 225 -117
-0.031454 0.140032 0.201055 9 -255 -19
-0.160498 0.084176 0.071042 -231 109 7
0.065603 0.099625 -0.130944 -27 -225 117
-0.052926 0.135971 -0.036717 5 -249 55
0.118486 0.127880 0.249036 131 215 35
-0.136343 0.120796 0.402441 1 255 13
0.151292 0.125368 0.381634 1 251 -41
0.189150 0.030603 0.170916 187 173 3
0.196041 -0.128389 0.186806 -227 117 1
0.164834 0.075210 0.048989 235 97 1
-0.037464 0.144452 0.082900 -7 255 3
-0.058814 -0.013411 -0.351526 -1 -253 33
-0.194319 -0.131776 0.204222 -227 -117 -1
-0.128141 0.134148 0.038012 -43 251 -5
-0.204943 -0.028750 0.163337 -255 15 1
-0.207499 -0.091697 0.085082 -245 73 -1
-0.185631 -0.062189 0.442568 -199 -3 159
-0.190518 0.026328 0.216076 217 -133 -11
-0.162799 0.076945 0.139191 -229 109 19
0.108525 0.117405 0.328472 93 -235 -23
-0.121333 0.030783 -0.248923 75 -69 233
-0.063349 0.132822 0.264491 25 -253 -27
0.179021 0.042387 -0.059367 235 97 1
0.166002 0.072118 0.075092 -229 -111 -9
-0.140806 0.122187 0.136966 -225 117 15
0.043893 0.144256 0.074033 7 255 -7
-0.191322 0.024424 -0.091505 -239 89 -3
0.136612 -0.047161 -0.409325 17 -253 21
0.197363 -0.126612 0.222223 217 -135 -7
-0.180240 0.003388 0.425976 -183 21 177
-0.067448 0.036480 -0.294828 -5 249 -51
0.199285 0.010816 0.156126 245 67 3
0.190992 0.026140 0.187454 225 119 1
-0.080696 -0.013646 -0.352229 -11 -253 23
0.203819 -0.067083 0.185854 255 -17 -7
-0.053153 0.125047 0.433407 1 255 -23
0.051337 -0.066417 -0.495087 27 -5 -253
-0.012331 0.140745 0.199670 -9 255 19
0.079489 0.141439 0.061418 -23 -253 5
0.064563 -0.127028 -0.494431 9 217 -133
-0.116891 0.112477 0.332137 185 -167 -53
0.129797 0.132694 0.142635 139 213 19
0.165653 0.010991 0.096950 -251 -31 -31
0.151246 0.106001 0.028930 -229 -111 -9
-0.209405 -0.048901 -0.164573 -255 15 3
0.009097 0.070329 -0.190917 9 221 -125
-0.052258 -0.082204 -0.492728 -27 -39 -251
-0.198081 0.015208 0.087165 -233 101 3
0.062962 -0.009965 0.473508 39 121 221
-0.195367 -0.059928 -0.397156 -225 55 -105
0.099245 0.134955 -0.021173 21 253 -19
0.209350 -0.031920 0.263404 255 5 -5
-0.148814 0.102951 0.113996 -227 115 13
0.097020 0.123357 0.418896 1 255 -23
0.027034 0.144896 0.083082 5 255 3
0.030349 0.071329 -0.186630 9 221 -127
-0.045344 0.124160 -0.079383 17 -235 95
0.147995 -0.031262 0.468737 129 39 217
-0.151039 -0.141302 -0.386618 1 -255 -1
0.054134 -0.013463 0.476912 13 193 167
0.105476 0.044334 -0.250395 13 249 -51
0.045101 0.144080 0.084955 5 255 3
-0.187145 0.028010 -0.196029 -235 97 -11
-0.084021 0.126610 0.303112 19 -253 -31
0.207339 -0.031191 0.242353 -253 -21 27
-0.118624 0.110375 -0.094478 -41 229 -103
-0.044271 0.144069 0.079847 7 -255 7
-0.124729 0.128783 -0.036541 47 -247 39
0.200028 0.005424 0.345026 217 133 7
0.205496 -0.038018 0.192562 255 -11 -7
0.017080 0.062439 -0.203207 -9 -221 125
-0.165643 0.031048 0.401798 -47 249 31
-0.205509 -0.043528 0.201436 -255 -11 -7
0.029378 0.137270 0.238649 9 253 27
0.159889 0.078718 0.163446 229 111 19
-0.155116 -0.031164 -0.434197 -159 25 -199
-0.020380 0.141120 0.191720 9 -255 -19
0.164907 0.073525 0.073377 229 111 9
-0.036000 0.043540 -0.255009 -13 231 -105
-0.185201 0.037403 0.098073 -227 115 5
0.127718 0.032127 -0.285714 31 245 -65
0.115313 -0.139605 -0.433883 -5 -255 -5
0.049706 -0.122316 0.451643 -11 -237 -91
-0.094919 0.087805 -0.146390 -29 225 -117
0.209923 -0.108412 0.017106 249 -55 1
0.158405 -0.087531 -0.369355 7 -45 251
0.169942 -0.059737 -0.433222 185 19 -173
-0.203654 -0.064322 0.142353 255 21 1
-0.111731 0.102581 -0.113029 -27 231 -105
0.165110 -0.099437 -0.088403 -233 -105 3
0.091877 0.064305 -0.191281 29 221 -125
-0.028212 -0.059289 -0.497641 -11 -3 -255
0.046739 -0.105563 0.483386 5 -243 79
-0.098745 0.008791 -0.380713 -25 245 -67
-0.205543 -0.010399 0.264843 -245 67 -19
0.097552 0.121565 0.387690 1 255 13
-0.186231 -0.123273 0.426854 -33 -247 53
-0.000967 -0.039873 -0.489181 -1 253 -37
0.166003 -0.100584 -0.427811 207 7 -147
-0.002207 -0.133096 0.264598 137 -185 111
-0.069929 -0.012395 -0.341776 -1 -253 33
0.152600 0.080586 0.228860 -223 -119 -25
0.054885 -0.022244 -0.420159 1 -253 31
-0.205463 -0.077204 0.209011 -253 -15 -23
-0.167169 0.041047 -0.210360 223 125 11
0.198469 0.011031 0.232371 231 109 13
0.195093 0.017835 0.207540 225 119 1
0.162465 0.077139 0.097190 -229 -113 -11
0.164724 -0.091933 0.057127 -243 -81 3
0.112546 0.099424 -0.119372 -27 -231 105
-0.188445 -0.118599 -0.409526 -211 -15 -143
-0.168004 -0.054509 -0.210821 -7 -147 -209
-0.162797 -0.021323 -0.045036 251 41 -9
0.193235 -0.023181 -0.318557 3 -247 67
-0.070258 -0.015359 -0.372389 -11 -253 23
-0.115863 0.104611 -0.108181 -27 231 -105
-0.031985 0.006326 0.477890 -11 29 253
0.207860 -0.102858 -0.112284 251 41 -5
0.196715 -0.140339 -0.147539 -243 -75 -3
0.163100 0.036704 -0.243979 55 241 -67
-0.097705 -0.059061 -0.485932 -79 181 -159
-0.128208 0.122250 -0.058666 -43 239 -79
0.125857 0.043714 -0.244793 29 245 -67
0.098206 -0.118226 0.473111 209 -141 35
0.196694 -0.041367 0.423745 229 27 109
0.063600 -0.026454 -0.426154 -9 15 255
-0.022224 -0.134690 -0.482331 -1 -255 -23
0.208549 -0.048891 -0.183163 195 3 163
-0.159876 -0.032133 -0.373714 169 -111 155
0.201575 -0.116744 0.172799 -233 103 -9
0.117104 0.120168 0.398920 1 -255 -13
0.197949 -0.132971 -0.125915 185 -175 7
0.159273 0.027788 0.425720 61 229 93
0.208731 -0.112290 -0.049049 249 -55 -1
-0.026195 0.141976 0.010927 -5 255 -21
0.097468 0.088261 -0.145140 -29 -225 115
-0.203646 -0.124448 -0.161500 -239 -87 1
0.004523 0.016304 0.477680 11 89 239
-0.204463 -0.073640 0.190600 255 9 5
0.205704 -0.007924 0.275843 245 67 -19
0.208882 -0.062011 0.241633 -255 13 7
-0.144441 0.117873 0.099300 -199 159 13
-0.017390 0.144691 0.068336 -7 255 -7
-0.153667 0.069776 0.265687 -227 111 29
-0.171223 -0.048869 -0.214447 -21 -197 -159
-0.035569 0.120737 0.401643 1 255 13
-0.063388 0.142983 0.068941 -21 253 -7
0.176061 -0.067275 -0.428022 193 17 -165
0.198861 0.008811 0.300300 223 123 -7
-0.160110 0.042357 0.360433 197 -155 -45
-0.069836 0.023801 -0.342784 -33 243 -71
-0.157922 -0.141199 -0.192778 -1 9 255
-0.187002 0.032537 0.176060 -155 201 7
-0.087447 0.013930 0.441417 31 -123 -221
-0.205186 -0.047584 0.109612 -255 -17 3
0.152234 0.064972 0.322391 219 127 33
-0.127747 -0.053326 -0.352497 -17 -161 197
0.164605 -0.099302 0.450160 149 -35 203
-0.207081 -0.059776 -0.070620 -255 -21 5
0.182506 -0.100382 0.058438 -29 -253 7
-0.131439 -0.081345 -0.367154 -7 -45 251
0.041470 0.144465 0.079275 7 255 -7
-0.040993 0.012463 -0.389491 -23 239 -83
-0.204272 -0.020245 0.175782 -255 15 1
0.115915 0.124617 0.440580 1 -253 23
-0.204353 -0.019509 0.134420 221 -29 123
0.153883 0.087894 0.181336 227 113 21
0.038720 -0.135170 -0.474113 -1 -255 -23
0.102702 -0.133104 0.460480 -49 -249 17
-0.028812 0.131259 -0.062190 -7 249 -53
-0.185057 0.025004 0.349472 -181 179 -3
-0.166073 0.052504 0.267481 -225 117 25
0.182751 -0.049813 -0.354406 19 -163 195
-0.147992 0.024483 -0.308043 -21 249 -55
-0.190136 0.026028 -0.170454 -241 83 1
-0.025052 0.115297 -0.102047 -9 231 -109
0.087448 0.139245 0.150278 -23 -253 -15
-0.013253 -0.096562 -0.441873 1 -1 255
0.009332 0.120560 -0.090537 7 235 -97
-0.031892 0.143777 0.133767 -7 255 3
0.139533 0.102876 0.228339 215 135 25
0.197359 -0.077613 0.426704 217 -15 133
-0.155079 -0.116093 0.449549 75 149 -193
-0.086394 0.129535 -0.054205 -23 249 -53
0.021374 0.143182 0.030596 5 255 -9
0.167132 0.031258 -0.166566 -255 1 1
0.208242 -0.059086 0.230278 -253 -3 31
-0.155764 -0.140285 -0.412153 -11 -255 -19
-0.066558 -0.009984 -0.325118 -1 -253 33
0.190817 -0.108888 -0.156610 -199 -153 -47
0.086613 0.136615 0.195206 23 253 21
0.206823 -0.062848 -0.072134 253 -21 5
-0.185081 0.026167 -0.225486 -211 137 -33
0.012674 0.107143 -0.120007 -9 -231 109
-0.206363 -0.013310 -0.154971 -251 49 -1
-0.116687 0.135962 0.124239 -45 251 7
-0.201242 -0.124085 -0.010482 -211 -145 3
0.103969 0.085645 -0.148335 -29 -225 115
-0.204455 -0.114330 0.127345 225 121 -9
0.165129 -0.140892 -0.391856 15 -255 -15
0.034544 0.140382 -0.005500 5 255 -21
-0.089667 0.138581 0.164528 23 -253 -15
-0.199805 0.007567 0.303746 -223 123 -7
0.204441 -0.065310 0.194241 253 -11 -23
0.049451 0.141425 0.172955 9 255 13
-0.175386 -0.030440 -0.236823 21 197 159
0.155177 0.034354 0.409061 -101 -229 -49
0.115763 -0.081645 0.484162 89 115 209
-0.007192 -0.112760 0.426589 3 -241 -81
-0.201865 0.000225 -0.193348 -227 115 -11
-0.204345 -0.110464 0.093725 171 -189 7
-0.111360 0.002852 -0.400627 -25 245 -67
-0.195607 0.015079 0.261606 225 -119 11
0.170615 0.042971 0.277731 213 137 21
-0.089472 0.119902 0.410394 1 -255 -13
0.146206 -0.012175 0.452410 67 195 149
-0.036621 0.136157 0.245840 9 -253 -27
-0.178225 -0.104197 -0.090706 29 -253 7
0.152751 0.104638 0.001580 235 97 1
0.162648 0.070816 0.174533 233 101 21
-0.173501 0.067282 -0.125577 -219 129 -23
-0.065045 0.007289 0.473987 -33 31 251
-0.044827 -0.009042 -0.317683 -1 -253 33
0.205004 -0.048936 0.095489 255 -17 3
-0.207448 -0.026823 -0.084072 -255 1 3
0.135919 0.106204 0.260103 187 169 33
-0.140972 0.123963 0.419791 1 255 -23
-0.165020 0.023923 -0.246742 57 -243 55
-0.203881 -0.038304 0.407462 241 -33 -77
0.193695 0.014540 -0.196285 219 129 -13
-0.160362 0.086761 -0.038798 235 -97 -1
0.077421 -0.098765 -0.486402 5 -39 -253
-0.014225 0.120622 0.405454 1 255 13
-0.111766 0.115431 0.333894 155 -197 -47
0.030697 0.049567 -0.225337 -9 -221 127
-0.205300 -0.065492 0.401892 -3 -107 -231
0.027803 0.137584 0.232480 9 255 21
0.198021 0.018575 0.017066 237 93 3
-0.087532 0.137656 -0.000691 -23 253 -17
0.205546 -0.114826 0.037421 251 45 -1
-0.191988 0.024285 -0.055953 -239 89 -3
-0.017812 -0.006992 -0.457116 -1 245 -67
0.162580 -0.012513 0.017624 -253 37 -11
-0.005308 0.124555 0.433140 1 255 -23
0.084576 0.135003 0.215448 -25 -253 -21
-0.179642 0.055489 -0.140963 -95 211 -105
-0.163573 0.060619 0.251246 219 -127 -23
-0.072920 -0.118259 0.476739 213 141 -9
0.172013 0.043912 -0.211744 -157 -193 49
0.111315 0.132173 0.204653 -43 -251 -23
0.206270 -0.070037 -0.088581 253 -23 7
-0.206283 -0.033988 -0.356011 -219 99 -85
-0.209218 -0.038117 -0.179419 -255 15 3
0.069861 0.105489 -0.117625 27 231 -105
-0.168540 0.057346 0.169572 237 -95 -17
-0.162800 0.050851 0.306082 -223 119 27
-0.077063 0.078672 0.417247 53 -175 -179
-0.109007 0.121075 0.391060 1 255 13
-0.188078 -0.134989 -0.402321 -163 -157 -117
-0.194342 -0.139496 -0.001137 -31 -253 3
0.202238 -0.123696 -0.054478 -225 121 -5
-0.005185 0.121632 0.366150 -5 253 33
0.157349 0.064596 0.286250 -225 -119 -25
0.011419 0.144827 0.094851 -5 -255 -3
-0.207504 -0.067933 -0.132015 -255 -11 9
-0.110132 0.077976 0.406845 79 -173 -169
-0.180107 0.039188 -0.090433 -235 97 1
0.165232 -0.055013 -0.099182 -101 -235 -5
-0.144263 0.001684 -0.400686 -57 237 -77
-0.136518 0.106222 0.234135 -215 135 25
-0.166032 -0.033232 0.096152 249 -13 51
-0.137652 -0.088055 -0.461494 -171 135 -135
0.208200 -0.061333 -0.121100 253 -21 5
0.055069 0.137069 -0.031152 -5 -249 55
-0.138045 0.124360 -0.047553 -47 247 -39
-0.185986 0.034374 0.148883 155 -201 -7
0.204460 -0.122009 -0.164890 249 55 -3
0.081533 0.075301 -0.173797 29 221 -125
-0.203160 -0.117063 0.110945 -217 -133 5
0.118377 0.015304 -0.350801 25 245 -67
0.179582 0.039792 -0.027582 235 97 1
-0.071892 0.024842 -0.275431 7 -243 75
-0.052426 -0.037078 0.482053 -13 65 247
0.167039 0.056491 0.233803 221 127 17
-0.161899 0.090033 -0.116522 -191 163 -47
0.149405 0.121186 0.410420 -255 1 1
-0.163326 -0.092492 -0.029918 215 -133 25
-0.099788 0.123380 0.421147 1 255 -23
0.149913 0.106560 0.058554 229 113 11
0.018296 0.121490 0.361417 5 253 33
-0.030970 0.125943 0.327894 9 -251 -39
0.133562 0.116314 0.238917 -211 -141 -27
-0.193518 -0.132359 0.046540 -231 109 3
0.208729 -0.035844 -0.166097 255 15 3
-0.194438 -0.141573 -0.102589 -63 -247 9
-0.154931 -0.002148 0.438035 143 -77 -195
0.006512 0.133165 0.283656 9 253 27
0.036377 0.139771 0.208523 -9 -255 -21
-0.155845 0.127975 0.435246 -255 1 1
0.163899 0.066257 0.185051 233 101 21
0.193609 -0.021585 0.422172 -221 -67 -109
-0.207925 -0.021909 -0.178758 -251 49 -1
0.087876 0.125186 0.432888 1 255 -23
0.174281 -0.059826 -0.429184 -185 -19 173
0.100153 -0.001752 0.465333 -23 -231 -107
0.108488 0.134945 -0.007782 41 251 -17
0.162282 -0.032446 -0.079674 -251 41 -9
0.203737 -0.075822 0.059192 251 41 -1
0.015162 0.140501 0.203471 9 255 19
-0.059764 0.132175 0.272655 -25 253 27
0.064233 0.069127 -0.188611 9 221 -127
-0.154581 -0.057166 -0.357672 -17 -161 197
0.022771 0.133135 0.282723 9 253 27
-0.166991 -0.042462 -0.423482 -191 25 -167
-0.204224 -0.079953 0.166379 -253 37 1
0.191310 0.024657 -0.090186 239 89 -3
0.015411 0.143574 0.157897 -7 -255 -11
0.127856 0.110246 0.301121 187 167 45
0.160166 0.079732 0.151322 229 111 21
-0.123190 0.127547 0.232747 -133 215 29
-0.196046 -0.127694 -0.397227 -213 -49 -131
0.060359 0.141192 0.161077 23 253 13
0.017793 0.031780 -0.268550 -23 -107 231
-0.173296 0.057343 -0.103790 -243 73 19
-0.113280 -0.095297 0.480389 -55 -139 207
-0.170626 0.062694 -0.049330 -235 97 1
-0.000004 -0.009642 -0.322134 -1 -253 33
0.193307 -0.144485 -0.167263 63 -247 9
0.141270 0.097419 -0.114429 41 225 -113
-0.025792 -0.020646 -0.473839 -7 193 -167
0.083322 -0.138600 0.432372 15 -253 21
0.061816 0.053900 -0.215463 9 221 -125
0.135662 -0.019601 -0.382224 -171 3 189
-0.162825 -0.094130 -0.081212 233 -105 3
-0.186241 0.021630 0.382866 195 -161 -25
0.188667 0.022767 0.316621 189 171 11
-0.124152 0.125391 0.243434 133 -215 -35
0.160266 -0.047189 -0.087544 -251 41 -9
0.133799 0.132059 0.009659 45 251 -15
-0.157712 0.064239 0.266374 -69 245 -21
-0.009240 0.034869 0.467622 -9 163 197
0.122564 0.043055 -0.221825 37 217 -129
0.204893 -0.082288 0.010775 251 45 1
0.018292 -0.120954 0.449167 -3 -241 -81
0.205732 -0.098929 0.222771 251 -43 -17
-0.121393 -0.005650 -0.427614 3 235 -99
-0.166281 0.072006 -0.010737 -235 97 1
-0.007146 -0.015030 -0.467049 -3 199 -159
-0.095785 0.119863 -0.076679 -23 237 -91
-0.165213 -0.100651 -0.109271 233 -105 3
-0.194848 -0.137958 0.099854 -29 -253 3
-0.204170 -0.113928 0.122597 -225 -121 9
0.120983 0.029635 -0.297851 33 243 -71
0.206573 -0.006718 0.296426 -237 -91 13
-0.189513 0.023383 0.301149 -203 155 1
-0.204614 -0.013336 0.146774 -255 15 1
0.200596 -0.116637 0.196178 245 -69 -9
-0.166730 0.043124 0.312840 -207 147 27
0.185415 0.032759 0.200824 155 201 3
0.008077 -0.130376 0.224959 171 -183 -43
0.157464 0.094116 -0.028075 235 97 1
0.191916 0.007449 -0.285535 177 181 -31
0.193461 -0.131256 0.167097 215 -139 -7
-0.151634 0.115338 -0.017709 -227 117 9
-0.016255 0.073404 -0.184922 9 -221 125
-0.003831 -0.018567 -0.392050 -1 -253 33
0.186913 -0.018023 -0.377822 221 107 -69
-0.058842 0.069336 -0.188375 -9 221 -127
-0.190042 -0.091585 -0.371090 -13 -33 253
0.159764 0.085353 0.067410 -229 -111 -9
0.134425 0.118541 -0.065647 41 239 -79
-0.026332 0.012613 -0.391978 -23 239 -83
-0.185895 0.018577 -0.259726 -213 139 -25
0.206682 -0.043789 0.023123 255 -21 3
0.065977 0.142940 0.088786 -23 -253 -3
-0.091684 -0.140784 0.391858 -15 -253 21
-0.108738 0.133778 0.190808 -43 251 23
-0.004737 0.143771 0.152294 -7 255 11
0.204119 -0.080252 0.413541 249 -25 53
0.139422 0.043369 0.418650 181 133 121
0.191662 -0.140123 -0.029049 31 -253 7
0.147097 0.116506 0.061646 -207 -149 -9
-0.138432 -0.120016 -0.455825 -177 43 -179
0.024639 0.102569 0.387530 -7 -255 9
-0.194942 -0.024513 0.421005 -215 75 115
0.014587 -0.003924 -0.447096 1 245 -67
0.058025 -0.027580 0.493530 25 193 165
-0.129915 -0.010206 -0.342382 -11 -253 23
-0.200247 0.006167 0.298571 -223 123 1
0.178146 0.037123 0.240672 149 207 5
0.062616 -0.008177 -0.310873 -1 -253 33
0.005980 0.125245 0.339904 5 251 43
-0.057912 0.143143 0.067195 -21 253 -7
-0.168928 0.031538 0.391334 -93 235 33
0.170530 0.061727 -0.016867 235 97 1
-0.120369 0.108490 -0.098035 -41 229 -103
-0.158132 -0.140751 -0.192507 1 -9 -255
0.095129 0.042535 -0.228358 -29 -221 125
0.130943 0.121504 0.223465 179 179 29
0.190650 -0.108395 -0.127181 -147 -209 7
0.023376 0.144089 0.129765 7 255 3
0.196387 0.032238 -0.133350 -57 21 247
0.203923 -0.012861 0.215826 255 19 -3
0.149031 -0.064421 -0.362455 19 -163 195
-0.069018 0.131140 0.269763 23 -253 -27
-0.201826 0.008893 -0.007650 -237 95 -5
0.175895 0.042905 0.216902 217 131 17
0.011072 0.140392 -0.008103 5 255 -21
0.109888 0.124537 0.433882 1 255 -23
0.169585 0.046150 0.268880 213 137 21
-0.105984 0.124147 0.424683 1 255 -23
-0.026600 0.060592 0.443897 -11 175 187
-0.150219 0.066021 -0.172442 -43 221 -119
-0.075497 -0.015607 -0.458654 -45 183 -173
0.130153 0.129517 0.174122 139 213 19
0.150140 -0.006834 0.442633 -111 -63 -221
-0.164666 0.075868 0.049192 -235 97 1
-0.123451 -0.004995 -0.425594 3 235 -99
0.116447 0.136435 0.114315 45 251 7
-0.194077 -0.134538 0.089622 -219 131 3
-0.135298 0.099099 -0.112596 -39 231 -103
0.096716 0.060671 0.429582 53 177 177
-0.160764 0.061844 0.239555 229 -111 -19
-0.040840 0.104715 -0.123224 -9 231 -109
0.202870 -0.024264 0.402815 -241 -51 -65
-0.079208 0.139526 0.018712 -23 253 -17
-0.049509 0.042896 -0.266986 -5 251 -49
0.206718 -0.097476 -0.115119 251 41 -5
-0.155731 -0.064778 0.005009 255 21 -3
-0.119880 0.025525 -0.314508 -33 243 -71
0.129422 -0.140932 -0.387502 -5 -255 -5
0.064368 0.103340 0.394569 49 191 163
0.034189 0.121720 0.391639 1 255 13
-0.207548 -0.026830 -0.074318 -255 1 3
-0.083408 0.029066 -0.319094 -33 243 -71
0.187124 -0.138945 0.148566 61 -247 -3
-0.029609 -0.014666 -0.467527 -3 199 -159
-0.144733 0.074647 0.332302 -211 133 47
0.116205 0.135825 0.132501 45 251 7
-0.056024 -0.005560 -0.290666 -1 -253 33
-0.113403 0.003817 -0.413332 -35 219 -127
-0.189666 0.017532 -0.237130 -195 161 -27
0.173814 0.054104 -0.005764 -235 -97 -1
0.167628 0.025870 -0.235448 -73 -153 191
0.124931 0.135077 0.103415 -45 -251 -7
-0.105988 0.125719 0.277004 -51 247 31
-0.068966 -0.079260 -0.492849 -31 -227 -113
0.204400 -0.080573 0.024060 251 45 1
0.183111 0.007362 -0.326685 225 115 -31
-0.197585 -0.127783 0.002562 -171 -189 5
0.135008 0.037573 -0.228095 1 253 -37
-0.129495 0.066098 0.405846 -193 139 91
0.162147 0.049791 0.317179 223 119 27
-0.112274 0.019033 -0.339984 -33 243 -71
0.103788 0.135044 0.192278 43 251 23
0.155998 0.096530 0.019072 235 97 1
0.129227 0.134869 0.123156 139 213 15
0.204126 -0.004034 0.050883 251 39 3
-0.036292 0.065255 -0.197736 9 -221 125
-0.190450 0.026694 -0.150546 -237 91 -11
0.194958 -0.128020 0.144106 213 -141 3
0.205946 -0.051387 0.016336 253 -23 3
0.054566 0.094779 -0.140955 -9 -225 119
-0.169250 0.038843 0.314437 -127 221 13
0.054735 0.062826 0.437724 27 173 185
0.169614 0.062646 0.089746 235 97 1
0.148995 -0.113462 -0.446811 181 -3 -181
-0.143707 -0.077900 -0.202851 -11 -73 -245
-0.074205 -0.081093 0.494794 -41 119 221
-0.126127 0.012341 -0.357622 -25 245 -67
0.183316 0.034492 0.125726 -231 -77 79
-0.063434 0.002125 -0.431347 -37 231 -103
-0.166087 0.062735 0.174839 -237 95 17
0.158455 0.077314 0.184490 227 113 21
-0.172694 -0.092610 -0.197233 11 73 245
-0.003076 0.075657 -0.181345 -9 221 -125
0.196193 -0.023637 0.418741 215 75 115
0.147264 0.115746 0.068017 199 159 7
-0.194567 -0.135956 0.113249 -219 131 -1
0.163976 -0.095989 -0.071934 -233 -105 3
-0.001117 0.124474 0.342859 5 -251 -43
0.204991 -0.003226 0.289503 235 99 -15
-0.133875 0.082526 0.358586 -203 141 61
-0.204392 -0.000103 -0.047409 -253 39 -1
-0.048290 -0.014485 -0.360807 -1 -253 33
-0.010521 -0.133322 -0.497539 -1 -253 -25
-0.156534 0.017265 -0.338894 -129 209 -67
0.105207 0.047543 -0.218365 29 221 -125
-0.055362 0.125237 -0.074005 -15 235 -97
-0.203660 -0.014877 -0.329068 -211 133 -55
-0.048069 -0.073928 -0.496917 -11 27 -253
0.148037 0.098302 0.179397 215 137 19
0.009125 0.144735 0.114882 -5 -255 -3
-0.167628 0.069107 -0.061754 -235 97 1
0.075201 -0.014820 -0.360496 1 -253 31
0.193017 -0.144021 -0.149983 63 -247 9
0.207098 -0.103224 0.198083 247 -63 15
0.019699 0.120404 0.410356 1 255 13
-0.000786 0.100759 -0.134318 -9 225 -119
-0.080513 -0.131535 0.346449 -141 -185 -105
0.044843 0.035979 -0.301735 5 249 -51
-0.203873 -0.124566 -0.150955 -239 -87 1
-0.086879 0.126060 0.305090 -19 253 31
-0.173761 -0.036674 -0.415996 -191 25 -167
-0.204042 -0.004600 0.072903 -253 39 3
0.098436 -0.038884 0.487679 55 37 247
-0.124802 0.135396 0.089724 -45 251 7
-0.014849 0.076925 0.428575 -9 175 185
0.067147 0.027212 -0.331254 23 245 -71
-0.055482 0.093076 -0.144440 9 -225 119
0.170883 0.031444 0.384700 85 239 15
-0.201021 -0.118117 0.231560 243 79 -3
0.131117 0.070975 -0.169399 41 221 -123
-0.156780 -0.049075 0.049178 249 -13 51
0.207539 -0.092349 0.128532 -241 -81 -5
0.111357 0.137635 0.061650 43 251 -5
-0.178877 -0.079327 -0.172044 31 -27 -251
0.174955 0.056581 -0.125720 241 83 7
0.171199 0.056976 0.120773 227 115 13
-0.166622 -0.080662 -0.368751 -13 -33 253
0.166720 0.069756 0.063840 235 97 1
-0.143155 0.057046 0.384337 -209 133 61
-0.107746 0.137896 0.047481 -43 251 -5
0.019343 0.079208 -0.174011 9 225 -119
-0.032073 0.124171 0.341548 -9 251 39
-0.199224 -0.051025 -0.383166 -229 57 -97
-0.197197 -0.004730 -0.317999 -165 189 -41
-0.076440 0.019981 -0.352965 -33 243 -71
0.166376 0.086357 -0.108162 229 111 -11
0.200457 -0.002339 0.132773 -225 -57 105
0.186679 -0.041097 0.439489 207 17 147
0.121828 0.013583 -0.355682 25 245 -67
-0.199901 -0.112707 -0.172977 137 -15 -215
0.143875 -0.140330 -0.192355 -1 -9 -255
-0.122119 0.128109 0.233559 -133 215 29
0.124222 -0.126604 0.442368 15 -245 71
0.123454 0.085291 -0.145332 29 225 -115
0.206143 -0.013989 -0.077020 251 49 -1
0.206392 -0.013063 -0.179986 251 49 -1
-0.195241 0.022906 0.053792 -233 101 3
-0.116203 0.074606 -0.167048 -29 221 -125
-0.181087 -0.062845 -0.206387 -7 -99 -235
0.057396 -0.015479 -0.365472 -1 -253 33
-0.158670 0.045123 0.357623 -199 155 33
0.172655 -0.040503 0.097573 -33 -45 249
-0.127716 -0.048211 -0.221034 -21 -197 -159
-0.129276 -0.006558 -0.298189 -1 -253 33
-0.192731 -0.139904 -0.018620 -31 -253 7
0.198908 0.008705 -0.148812 237 93 -5
-0.176893 0.046390 0.009632 -235 97 1
-0.150519 0.086544 0.223795 -223 119 25
-0.127378 0.094834 0.347920 -205 143 53
0.185747 0.030654 0.253813 203 153 9
0.171316 0.025037 -0.286882 129 209 -67
-0.124216 0.123276 -0.057881 -43 239 -79
-0.120921 -0.105693 0.471652 -67 -147 197
-0.172341 -0.063874 -0.363758 -5 -107 231
-0.048786 0.095814 -0.139347 9 -225 119
-0.063691 -0.137531 -0.458715 3 -253 -29
0.054675 0.120266 -0.087195 17 235 -95
0.129807 0.124834 0.439280 1 255 -23
0.076224 0.128966 0.286626 -23 -253 -27
0.122512 -0.123138 -0.472346 -177 -43 179
-0.128293 -0.084838 0.479156 99 23 -233
-0.127103 0.133606 0.016707 -45 251 -15
-0.205960 -0.007833 0.276862 -245 67 -19
0.060812 0.143102 0.067329 -21 -253 7
0.042235 0.143713 0.062548 7 255 -7
0.047576 -0.022185 -0.424430 1 -253 31
0.064141 0.143079 0.076412 23 253 -5
-0.139369 -0.056267 -0.457764 -85 201 -131
0.095421 -0.015768 -0.371460 1 -253 31
-0.176266 -0.019886 -0.263439 -5 -255 -15
0.194491 0.032186 -0.148869 105 -99 -211
-0.080751 0.005458 -0.403081 -25 245 -67
0.074390 0.131374 0.264373 -23 -253 -27
0.065308 0.032477 0.435613 -51 -105 -227
-0.009302 -0.009836 0.477989 -7 103 233
0.101163 0.110878 -0.097826 25 231 -105
0.144506 0.018632 -0.282363 -19 -249 55
0.167582 0.068393 0.036407 235 97 1
0.018414 0.011957 -0.396133 23 239 -83
0.172152 -0.066798 -0.204483 13 -67 -245
-0.117384 0.118032 0.306268 -131 215 43
0.100151 0.130948 0.242576 43 249 27
0.207259 -0.106748 0.171708 243 -75 9
-0.006137 0.140778 -0.008448 -5 255 -21
0.064808 0.043661 0.453232 31 145 207
0.031608 0.124415 0.436086 1 -253 23
0.121785 -0.085738 -0.449685 1 255 -1
0.109400 0.136706 0.147052 45 251 15
0.202023 -0.123929 -0.053443 225 -121 5
0.121492 0.106390 -0.101638 39 229 -103
-0.054445 0.123084 0.345390 9 -251 -39
0.040751 -0.134088 -0.484396 -1 -255 -23
-0.236847 0.047842 -0.127514 -187 -67 -161
-0.007651 0.139372 0.221360 9 -255 -19
0.193021 -0.017960 -0.365746 201 137 -77
0.047646 -0.097136 -0.490624 27 -39 -251
0.170837 0.037703 0.324997 -127 -221 -13
0.194127 0.020773 0.197544 -225 -119 -1
-0.052835 -0.113645 -0.441002 253 -1 23
-0.201960 -0.116011 0.173230 -233 -103 9
0.070115 0.041234 -0.257771 -23 23 253
-0.026606 -0.093994 -0.441865 1 -1 255
0.129827 0.049001 0.421283 139 149 155
-0.004507 0.139298 0.221304 -9 255 19
-0.190999 -0.138727 0.173583 -61 -247 -3
-0.126641 0.091873 -0.130739 -41 225 -113
0.199778 0.010787 -0.066795 237 93 -5
-0.095411 -0.017973 -0.457900 -27 207 -145
0.069018 -0.026813 -0.475136 27 207 -145
-0.146473 0.122919 -0.017212 -193 167 -1
-0.095925 0.107901 0.358905 53 -153 -197
-0.166145 -0.020483 -0.127037 251 43 -13
-0.132764 0.122601 -0.055468 -43 239 -79
0.093426 -0.081260 -0.485320 117 3 -227
0.081796 0.121329 0.352699 31 247 -59
0.204964 -0.051534 -0.358223 19 -163 195
0.023913 0.121682 0.361611 5 253 33
0.102114 -0.115849 -0.481722 119 5 -225
-0.140255 0.125762 0.438059 1 255 -23
-0.211101 -0.104112 0.104875 -239 -89 9
-0.174485 0.051691 0.042475 -235 97 1
-0.019046 -0.131235 0.267377 -137 185 -109
-0.171816 -0.133109 -0.374092 -1 -1 255
0.155030 0.050605 0.355932 -211 -137 -41
-0.112488 -0.132503 0.385247 -181 -177 25
-0.118039 0.036510 -0.274183 -31 245 -65
-0.209922 -0.015172 -0.239028 -231 105 23
0.166872 0.029584 -0.278922 -3 253 -37
-0.015724 -0.020029 -0.473729 -3 199 -159
-0.013549 -0.133945 0.259337 -141 -185 -105
-0.060945 0.142676 0.120605 23 -253 -3
0.205266 -0.030940 0.157562 255 15 1
0.063959 0.039839 -0.280023 5 249 -51
-0.094090 0.130287 -0.047932 25 -249 51
0.208002 -0.104953 0.169876 243 -75 9
-0.021864 0.122829 -0.084406 -7 237 -97
0.172539 0.056306 0.011358 235 97 1
0.195027 0.013169 -0.176406 207 147 -9
0.000278 0.145405 0.085601 -5 -255 -3
-0.158028 0.054320 0.323726 -221 125 33
-0.168452 0.071282 -0.096518 -243 79 13
0.154475 0.134796 0.436514 1 251 -41
0.167107 0.019229 0.432434 143 91 191
0.197955 0.017831 0.009180 237 93 3
-0.000825 -0.099015 0.493561 -11 -141 213
0.191459 -0.051581 -0.399589 225 55 -105
0.191698 0.026318 -0.023126 239 89 -3
-0.203960 -0.116554 0.091506 -213 -139 5
-0.205819 -0.115124 0.027299 -255 -15 1
-0.144651 0.116918 0.110505 -199 159 13
0.151721 -0.065293 0.467401 123 -19 223
0.080835 0.125713 -0.066730 27 235 -95
-0.038272 -0.122782 -0.489898 -11 191 -169
-0.155097 0.066316 0.268020 227 -111 -29
0.111439 0.134239 0.183118 43 251 15
-0.031123 0.136701 0.241871 9 -253 -27
-0.100455 -0.062397 -0.485489 -107 -41 -227
-0.170239 0.068565 -0.153844 -189 161 -55
0.108337 -0.033496 -0.430639 -175 -73 171
0.019004 0.123873 0.422384 1 255 -23
-0.209584 -0.110588 0.003838 -249 -55 1
0.097657 0.137341 0.011125 -23 -253 17
0.061690 -0.006801 0.473696 41 -93 233
-0.152587 0.072945 0.266017 227 -111 -29
0.098228 -0.121829 0.376838 -13 253 -33
0.179308 0.043116 0.051023 51 249 -13
0.044556 -0.107668 -0.489550 25 -39 -251
-0.046237 0.128319 0.308739 -9 253 35
0.012177 -0.014974 0.481383 -5 -195 -163
0.027071 -0.096797 0.493685 7 -149 207
-0.133698 0.131712 0.122109 151 -205 -13
-0.016588 -0.055431 0.488531 -9 65 247
0.204478 -0.111632 0.137739 255 -13 5
0.184240 -0.101699 0.021215 -29 -253 9
0.177016 0.034962 0.312013 135 215 13
-0.048106 0.139680 0.203333 -9 255 21
0.141854 0.046658 0.409259 -205 -139 -61
0.166432 -0.003119 -0.395495 101 219 -81
-0.044100 0.141553 0.013303 -5 255 -21
0.154372 0.088472 0.173231 -227 -113 -21
-0.037134 -0.035467 0.489112 -1 -253 31
0.205618 -0.034135 0.097593 255 1 3
-0.192861 -0.133776 0.197464 -231 -109 -3
0.058290 0.121753 0.393880 1 255 13
-0.112919 0.135736 0.154506 -45 251 15
-0.204174 -0.016142 0.203076 -255 19 -3
-0.161947 -0.093107 0.456547 -37 -245 61
0.147048 0.105054 0.138446 215 137 19
-0.196220 -0.131283 -0.072727 -167 -193 7
-0.084752 0.045493 0.447201 -55 145 203
-0.191705 -0.057843 0.435039 -199 -3 159
0.203642 -0.121057 -0.023832 -209 145 -3
-0.053759 0.086239 -0.157883 -9 225 -119
0.151285 0.058194 0.347758 -211 -137 -41
0.015220 -0.132791 0.259971 141 -185 -105
0.126888 0.132363 0.167820 135 215 19
0.109755 0.137387 0.043463 -43 -251 5
-0.117753 -0.035529 -0.461486 -121 95 -203
0.082936 0.121679 0.352014 25 227 113
0.163738 -0.022750 -0.250121 3 -231 -107
0.034283 0.139187 0.211924 -9 -255 -21
0.044951 0.047757 -0.227704 -9 -221 127
0.205294 -0.083595 -0.008312 251 45 -1
-0.080540 -0.139766 0.422653 -15 -253 21
0.083000 0.140816 0.113943 23 253 5
0.204342 -0.005487 0.072619 251 39 3
-0.205285 -0.060735 -0.004018 -255 -23 3
0.163505 -0.086715 -0.199479 -11 73 245
0.150780 0.002089 0.425180 -33 -49 -249
-0.104719 0.122586 0.414400 1 255 -23
0.144411 0.081740 0.304102 -205 -137 -61
-0.079623 -0.006087 -0.291181 -1 -253 33
0.186720 0.035131 0.085017 227 115 5
0.189857 -0.139158 0.041469 31 -253 3
0.142650 -0.010799 -0.338424 35 -251 21
-0.150157 0.112048 -0.077373 -155 197 -43
-0.081378 0.124314 0.437929 1 -253 23
-0.142025 0.107288 0.181298 215 -135 -19
0.139116 0.071629 0.362757 209 133 61
-0.196180 -0.023619 -0.367941 -209 117 -89
0.236215 0.034995 -0.107863 51 -155 195
0.207322 -0.032320 -0.013811 255 1 3
0.164444 0.077402 -0.039318 235 97 1
-0.173499 -0.044124 -0.412568 -47 -249 23
0.102223 0.138854 0.111032 -45 -251 -7
0.142886 0.119962 0.114528 209 -147 11
0.001729 -0.020709 -0.405873 -1 -253 33
0.135498 -0.020518 -0.259254 3 -255 -19
-0.155657 0.111076 0.414997 1 -249 55
0.113064 -0.029096 -0.459839 69 187 -159
0.196181 -0.006770 0.405249 -161 -171 -99
0.167545 -0.109762 -0.425443 207 7 -147
-0.009007 0.029277 -0.332992 -5 249 -57
-0.203652 -0.107088 0.210585 -251 -41 -7
-0.175573 -0.018838 -0.300197 -1 -249 57
-0.082918 0.002593 0.459718 5 -237 -97
0.089709 0.138870 0.156684 23 253 15
-0.196447 -0.142580 -0.171134 -105 -231 7
-0.152959 -0.008132 0.447466 -113 39 225
-0.174224 -0.116632 -0.375366 -13 13 -255
-0.026192 0.079951 -0.171691 9 -225 119
-0.195686 0.017179 0.198407 -225 119 1
0.163476 0.071156 0.164019 233 101 21
0.135348 0.129059 0.134228 185 175 15
-0.059093 0.122011 0.387762 1 255 13
