ply
format ascii 1.0
element vertex 1204
property float x
property float y
property float z
property uchar red
property uchar green
property uchar blue
end_header
-0.169078 0.034193 0.199868 -73 243 -13
-0.168515 -0.114161 -0.171469 -1 -255 -1
-0.052137 0.027776 -0.300927 -21 247 -57
0.005269 0.041751 -0.232178 3 251 -45
-0.125311 -0.107477 0.321922 -255 -23 -1
0.139659 -0.123336 -0.356052 -9 -255 -3
-0.102656 -0.108858 -0.475039 -97 -43 -231
-0.187507 -0.065921 0.348707 3 -83 -241
0.156180 -0.119626 0.417556 85 -231 69
0.070166 -0.111885 0.202900 -11 -251 41
0.181506 -0.058981 -0.401668 249 7 -55
-0.059767 -0.113821 -0.289613 -1 -255 -5
0.193511 -0.034892 -0.191507 255 -15 -7
-0.028311 0.076162 0.455271 -5 255 3
-0.079063 0.126532 0.122424 -31 251 39
0.082233 0.131085 0.074158 33 253 21
-0.127025 -0.114712 -0.104163 -1 -255 -1
0.187201 -0.090865 -0.372056 251 -17 -43
-0.169503 0.033029 0.104235 -133 217 3
-0.039780 0.048493 -0.178137 27 141 211
-0.164223 -0.021335 0.450322 -203 117 99
0.183397 -0.054780 -0.392224 247 29 -53
-0.174946 0.031625 0.178667 -107 231 3
-0.102086 0.124454 -0.007602 -41 245 -61
0.022497 -0.114536 -0.100892 -3 -255 -1
-0.128921 -0.115506 0.124655 3 -255 -1
0.021901 0.105196 -0.069441 5 223 -123
-0.099241 -0.114764 -0.064052 1 -255 -1
-0.192354 0.006699 -0.268994 -243 77 -3
0.112558 -0.006883 -0.276148 255 1 -1
-0.051724 -0.115746 -0.198167 -1 -255 -5
-0.152878 0.054622 0.090381 -237 95 9
-0.087075 -0.095163 0.426152 -17 -197 161
-0.205567 -0.052144 0.174950 -237 27 -87
-0.020706 -0.120489 -0.477491 1 -255 15
-0.114558 -0.068688 -0.278034 -255 -3 3
0.190993 -0.038810 0.094089 255 -15 -1
0.158989 -0.135143 0.177830 -1 -255 1
-0.144209 0.047694 0.287186 -205 149 29
-0.149695 -0.124024 -0.348330 9 -255 -3
-0.190241 -0.030697 -0.048041 -255 -5 -1
-0.129211 -0.046215 0.338032 -251 -11 39
-0.092857 -0.115028 0.122864 3 -255 -1
0.186357 0.015054 0.073710 231 107 1
0.193849 0.048822 -0.081377 75 87 -227
-0.023168 -0.110734 0.344641 -1 -255 -5
0.153088 -0.115315 0.026036 1 -255 -1
-0.152628 -0.056687 0.471459 -165 109 161
0.064102 -0.101373 0.398653 1 -179 -183
0.082537 -0.088097 -0.260920 -1 -255 -3
0.003119 0.032774 0.474320 7 -167 193
0.182962 -0.016386 0.390882 209 127 73
0.078887 0.116886 -0.039574 53 217 -121
-0.174746 0.029281 -0.013022 -157 201 -1
-0.060577 0.069543 0.331557 -13 239 87
-0.206643 0.007008 0.263953 -235 97 5
0.184541 -0.073132 0.410625 -13 -253 29
-0.127370 -0.122641 -0.369674 11 -255 -9
-0.136315 0.045935 0.327161 -177 177 49
-0.168313 -0.115043 -0.074124 -1 -255 -1
-0.157894 -0.074747 0.458560 -17 -73 243
-0.093244 0.068167 0.324652 -39 237 87
0.164049 -0.116417 0.152668 -3 -255 -1
-0.083765 -0.103018 0.372894 -3 -241 83
-0.024295 -0.007642 0.483646 -11 155 203
-0.104230 -0.115194 0.130236 3 -255 -1
0.184286 0.020068 -0.200553 233 103 5
-0.180807 0.022795 0.027062 -187 175 1
-0.082629 -0.109900 0.249027 -1 -255 -5
0.174275 -0.024319 -0.323127 -3 -175 187
-0.017433 -0.114325 0.150025 1 -255 -1
0.188902 -0.096205 0.073246 217 135 -3
-0.188819 -0.070808 -0.368781 -251 -9 -41
0.133288 -0.067350 0.314163 253 -29 21
0.129606 0.029523 0.394719 87 231 65
0.147986 0.049774 0.199816 237 93 17
0.007674 -0.114478 0.006605 -3 -255 -1
0.142899 -0.025888 0.476061 89 153 185
0.141642 -0.114861 -0.041490 1 -255 -1
-0.187393 -0.119148 -0.376365 -247 -61 -27
-0.189791 0.000103 -0.009670 -253 27 -1
0.112719 -0.004021 -0.275537 255 1 -1
-0.004240 0.134531 0.020171 -5 255 -19
0.110063 -0.115395 0.023939 1 -255 -1
0.157662 -0.099655 0.459678 177 -127 133
-0.118285 0.031788 -0.252461 -23 249 -47
-0.097547 0.048238 -0.157780 -57 219 -119
0.019568 0.100008 0.246476 3 243 77
-0.074618 -0.119656 -0.455366 7 -255 19
-0.151524 -0.002382 -0.248412 -1 -251 -45
0.049511 -0.114830 -0.119781 1 -255 -1
0.052536 0.058410 0.376470 21 251 43
-0.164124 -0.115345 -0.000756 1 -255 -1
-0.011924 0.098578 -0.082520 -5 223 -123
0.090454 -0.026399 -0.452010 45 223 -115
-0.103197 0.049081 -0.153437 -57 219 -119
-0.181317 -0.116533 -0.098221 253 -27 3
-0.018529 -0.117924 -0.425111 1 -255 -13
-0.203805 0.005478 0.217481 -229 103 -43
-0.008951 0.071243 0.332294 -3 241 85
0.109455 -0.115276 -0.023965 1 -255 -1
-0.005767 0.003443 -0.398911 -9 239 -87
-0.096047 -0.121177 -0.470865 11 -253 19
0.055851 0.089088 -0.095186 17 223 -123
0.077323 0.119611 -0.035304 53 221 -117
-0.154417 0.000629 -0.387750 -69 191 -155
-0.134264 0.098699 0.065233 -231 107 7
0.135938 -0.121646 -0.403267 -13 -255 -1
-0.125335 0.086914 -0.073937 -57 217 -119
-0.123736 0.104908 -0.040140 -83 215 -111
-0.014340 0.070513 -0.132875 -7 221 -127
0.016892 0.039403 -0.242304 7 251 -47
-0.074668 0.104717 -0.063745 -17 223 -123
-0.001493 0.043755 0.480776 -9 -1 255
0.154070 -0.091749 0.452146 81 -97 221
-0.090626 0.028801 -0.278898 -17 251 -45
0.135972 -0.114618 -0.099938 -1 -255 -1
-0.188752 -0.106844 -0.024957 -249 -55 -3
0.131325 -0.115657 0.013699 1 -255 -1
0.126814 -0.075185 -0.179424 1 -29 -253
0.003614 0.119019 0.184167 3 249 53
-0.078908 -0.119741 -0.393452 1 -255 -11
-0.074970 0.102549 -0.068035 -17 223 -123
0.029595 0.071744 -0.129237 7 221 -127
-0.087848 0.074866 0.452433 -13 255 3
-0.090514 0.032247 0.464038 -87 -135 199
0.097628 0.031963 -0.260389 19 251 -45
-0.062742 -0.114423 -0.284086 -1 -255 -5
0.047460 0.121111 0.167991 13 249 53
0.187751 -0.075057 0.098334 255 -11 -13
-0.028527 -0.115801 -0.197591 -1 -255 -5
0.147742 -0.090071 0.389774 -203 -99 -119
-0.039544 0.033127 -0.272056 -7 251 -45
0.158691 -0.122856 -0.385000 -11 -255 -9
-0.000774 -0.017245 -0.451700 -11 231 -105
-0.146944 -0.054876 -0.343616 7 -103 233
-0.040635 -0.114403 0.042094 1 -255 -1
0.062010 0.044197 0.470155 -1 249 -55
0.023523 -0.114737 0.096823 -3 -255 -1
-0.102080 0.048818 0.386239 -71 227 91
-0.180555 0.000517 0.265119 -1 -255 -3
0.105540 0.118970 -0.023559 45 243 -67
-0.113115 -0.114932 -0.017465 1 -255 -1
-0.168136 -0.115401 0.059781 3 -255 -1
-0.179539 0.029566 0.313577 -85 239 27
0.134472 -0.121658 -0.417578 -11 -255 7
0.106807 -0.087674 -0.256654 -1 -255 -3
-0.052520 -0.084737 -0.465433 1 -73 -245
-0.086547 -0.120661 -0.371681 3 -255 -13
0.107585 0.127820 0.034611 63 247 1
0.049829 -0.126648 0.205275 247 63 -1
-0.162311 0.039520 -0.032141 -237 93 5
0.015556 -0.114327 -0.106706 -3 -255 -1
0.181716 0.004390 -0.330883 205 143 -55
0.204713 -0.001866 0.238318 9 -253 33
-0.150477 -0.114417 -0.158355 -1 -255 -1
0.139567 0.087630 0.064444 231 107 7
0.086069 0.059482 -0.141858 31 219 -127
-0.059669 0.069213 0.452274 1 -249 55
0.087978 -0.001472 -0.393571 33 237 -87
0.027138 -0.115565 -0.199788 -1 -255 -3
0.142009 0.049375 0.275120 145 211 -9
-0.040361 -0.114526 0.081373 1 -255 -1
-0.102075 0.129726 0.061232 -33 253 -1
-0.157541 -0.119055 0.171586 -5 -61 -247
-0.146677 0.068363 0.103644 -235 99 7
-0.189501 -0.059325 -0.163343 -251 -21 33
-0.193202 -0.070810 0.133443 -251 -7 -41
-0.110684 -0.121305 -0.462218 11 -253 19
-0.086005 -0.114746 0.105796 3 -255 -1
-0.075113 -0.114683 0.042900 1 -255 -1
0.071076 -0.097878 0.488355 15 -139 213
0.089106 0.061910 0.345269 31 237 87
0.088380 0.047010 -0.170143 9 249 -59
-0.185419 -0.000407 0.254469 -9 -253 33
-0.142016 -0.108625 0.468090 -113 -165 157
0.086937 0.131438 0.055658 33 253 -1
-0.117962 -0.114863 0.009134 1 -255 -1
-0.098756 -0.053125 -0.473212 -121 -181 -133
0.162881 -0.114673 0.430017 75 -237 55
-0.026732 0.093735 0.266398 -3 243 77
0.188596 0.010171 -0.284350 189 169 -31
0.081957 0.055353 0.380111 23 249 47
0.051080 -0.114183 -0.169493 -1 -255 -1
-0.130670 0.023881 -0.285558 79 241 -25
-0.104889 -0.121492 -0.459868 11 -253 19
-0.114811 -0.020794 -0.265696 -255 -3 3
-0.009448 0.054363 -0.161226 -7 221 -127
0.154115 -0.115725 0.079728 1 -255 -1
0.174164 0.034548 0.271205 69 245 7
-0.019228 -0.109910 0.280169 -1 -255 -5
0.127942 -0.036288 -0.450879 89 185 -151
0.184537 0.017977 -0.068118 235 99 1
-0.180362 -0.020532 0.410888 -207 129 73
-0.004801 -0.076065 0.488813 -9 121 225
0.143930 0.024117 0.394411 77 231 75
-0.013303 -0.110748 0.341447 -1 -255 -5
0.114007 -0.122006 -0.456583 -39 -251 -3
0.175562 0.026041 -0.238158 153 205 -11
0.079073 -0.119681 -0.402011 -1 -255 -13
0.026377 -0.094808 0.452391 -9 -227 -115
0.058101 -0.020245 -0.448084 23 235 -95
-0.119292 -0.114844 0.067862 3 -255 -1
-0.080810 -0.119681 -0.404282 1 -255 -11
-0.187431 -0.093671 -0.019483 -227 115 -5
-0.096786 -0.085240 -0.472634 -173 17 -187
-0.048405 -0.114460 0.129668 3 -255 -1
-0.192209 -0.047003 -0.342905 -249 15 -49
-0.097284 0.074477 0.442024 -13 255 1
0.190287 -0.016485 -0.331610 241 63 -57
-0.176013 -0.078435 0.430345 -251 -29 29
-0.009432 -0.114312 0.095227 1 -255 -1
-0.190677 -0.026768 0.326085 -17 -175 -185
-0.024679 0.038155 -0.247521 -7 251 -47
0.116863 0.039179 0.441526 -21 143 -211
-0.107699 -0.114835 0.015217 1 -255 -1
-0.179636 -0.107048 -0.409181 -243 -47 -61
-0.102430 -0.121565 -0.467087 11 -253 19
0.000158 0.051578 0.404620 9 227 113
0.076504 -0.115574 -0.211908 1 -255 -5
-0.132111 0.102139 0.093309 -231 107 7
0.004225 -0.114607 0.126810 -3 -255 -1
0.004184 0.060501 0.363931 3 239 89
0.005376 0.079669 -0.116880 7 221 -127
0.184241 0.019270 0.156221 219 129 -15
0.013032 0.041493 -0.233630 3 251 -45
0.006340 -0.111271 0.209352 -1 -255 21
0.131497 0.110694 -0.013086 161 193 -41
-0.138941 0.072673 0.189406 -231 105 21
0.065468 0.119138 -0.039540 19 223 -121
-0.034646 -0.115448 -0.229797 -1 -255 -5
-0.074827 0.073263 -0.120390 -17 221 -127
-0.191338 -0.026411 0.062448 -255 -5 -1
0.096700 0.074320 0.421607 13 255 1
0.021720 -0.120216 -0.380724 -3 -255 -11
-0.000119 -0.113214 0.184766 -1 -255 21
-0.107577 0.096908 0.228119 -67 235 75
-0.092482 -0.114664 0.074651 1 -255 -1
0.119029 -0.074687 0.485638 157 201 -11
-0.115936 -0.114831 -0.016902 1 -255 -1
0.167939 -0.071629 0.445114 251 -17 37
0.190223 -0.037595 -0.333473 -9 -141 213
0.112419 -0.090985 0.407407 9 -241 85
-0.040754 0.056740 -0.154420 -19 221 -127
0.035379 -0.114619 0.035432 -3 -255 -1
-0.054006 -0.114753 -0.096817 1 -255 -1
-0.094990 -0.114975 0.132801 3 -255 -1
0.160146 -0.123202 -0.369604 -11 -255 -9
0.144174 -0.028902 -0.422632 21 253 -25
-0.068045 -0.114606 -0.001386 1 -255 -1
0.160159 -0.008209 0.431941 185 131 117
0.189591 -0.070611 0.116970 253 -5 -23
0.143053 -0.106683 0.415358 -197 -121 -109
-0.084344 -0.111018 0.349803 -1 -243 81
0.113035 0.106827 0.196543 75 239 53
-0.092879 0.060989 0.346908 -39 237 87
0.001268 0.082042 0.303021 1 241 85
-0.111759 -0.087585 -0.292468 -1 -255 -3
-0.031411 0.132398 0.002497 -3 253 -39
0.148149 0.033710 0.347940 59 245 41
0.167030 -0.129918 0.366461 -237 31 -87
0.189897 -0.043053 -0.005010 255 -15 -1
-0.192208 -0.010478 -0.189544 -253 23 23
0.045087 0.076290 0.473687 1 253 -31
-0.077696 0.121865 0.155153 -31 251 39
0.102028 -0.120483 -0.455587 -11 -253 19
0.115030 -0.110474 0.308507 -1 -255 -5
0.139534 0.088227 0.056544 231 107 7
0.076344 -0.115058 0.040355 -3 -255 -1
0.173470 -0.000935 0.280280 -1 -243 -79
0.188035 -0.027053 0.198261 -1 -173 187
0.135383 0.051751 -0.128331 61 213 -127
-0.129641 0.100353 0.149511 -229 109 19
-0.190762 -0.051868 0.343806 -7 -127 -221
0.191706 -0.079216 -0.350088 251 1 -41
0.156103 -0.115032 -0.025537 1 -255 -1
0.007814 -0.057046 -0.495613 19 33 -253
-0.061675 -0.119148 -0.442372 3 -255 15
0.143976 0.032878 -0.230250 -7 253 -31
0.169908 0.030216 -0.195180 105 233 1
-0.002534 0.030100 0.472768 -7 -167 193
0.079288 0.045228 0.467012 -123 221 -35
0.019648 0.027586 0.469089 7 -169 191
-0.026646 -0.115000 -0.237088 -1 -255 -3
-0.133004 0.085574 0.188193 -229 111 25
-0.200053 -0.006012 0.337253 -227 87 77
-0.055557 -0.115457 -0.217022 -1 -255 -5
-0.052196 -0.102112 0.487246 -5 -129 221
0.102434 -0.008749 -0.408393 37 233 -97
0.120433 0.116689 0.130556 149 205 31
0.041821 -0.125911 0.136273 -243 -77 1
-0.037899 0.044120 0.469536 -1 245 -73
-0.085467 0.119284 -0.033171 -49 221 -119
-0.143162 0.076604 0.111462 -231 107 7
-0.146218 0.079002 -0.025326 -233 105 7
0.199726 -0.112246 0.166842 241 -45 -71
-0.170687 0.036354 0.249743 -67 245 -11
0.160475 -0.115855 0.112579 1 -255 -1
0.190584 -0.028024 -0.022358 255 -5 -1
-0.171893 -0.098860 -0.176752 -1 1 -255
-0.026914 -0.114305 0.073668 1 -255 -1
0.027318 0.039965 0.478352 9 -83 241
-0.188813 -0.046276 -0.136504 -255 -15 -1
0.127776 -0.099820 0.367355 95 -229 63
0.084122 0.048941 0.395212 27 241 79
0.095025 -0.016902 0.484583 31 147 207
0.084176 0.013371 -0.346990 29 243 -73
-0.167470 0.020817 0.376152 -131 201 89
-0.007899 -0.114163 0.121655 1 -255 -1
0.125105 -0.114775 -0.087019 -1 -255 -1
0.187352 0.010990 -0.145659 239 87 1
0.028345 -0.119271 -0.449857 -3 -255 15
-0.014949 -0.109207 0.356004 -1 -243 81
-0.009070 0.007183 -0.386265 -9 245 -71
0.064611 -0.100026 0.380433 -1 -241 83
0.084782 -0.115955 0.168293 -1 -183 -179
-0.118046 -0.114195 -0.153893 -1 -255 -1
0.066044 -0.112314 -0.487033 29 217 -131
-0.044870 0.084739 0.291957 -13 243 77
0.087068 0.047980 -0.173196 45 241 -71
-0.129111 0.100803 0.174961 -241 81 15
0.179968 -0.002967 -0.355276 233 89 -53
-0.051415 -0.121119 -0.487100 7 -255 19
0.186366 -0.002720 -0.280027 -1 -253 37
0.093323 -0.095028 0.396402 -1 -241 83
0.125901 0.104334 -0.039725 83 213 -111
-0.074301 -0.114624 -0.053436 1 -255 -1
0.137264 0.026678 -0.284497 -111 229 -11
0.060237 -0.110860 0.337370 -1 -255 -5
0.092739 0.057160 0.364079 -5 179 -181
-0.025007 0.069090 -0.134886 -9 221 -127
0.154944 -0.115410 0.028344 1 -255 -1
-0.183932 -0.121094 0.075249 255 -15 3
0.059458 -0.105926 0.472050 -9 -227 -115
0.154799 0.058688 -0.030858 237 93 5
-0.198363 0.019901 0.232907 -187 173 -15
-0.184233 0.019308 0.080697 -231 107 1
-0.126577 -0.087425 0.256044 -255 -23 -1
-0.015427 -0.114037 -0.304631 -1 -255 -3
-0.016149 -0.031888 0.497649 -11 39 251
0.037888 -0.107713 0.358581 -1 -241 83
0.138328 0.034467 -0.223042 25 251 -37
0.100813 -0.102948 -0.326468 1 -189 171
0.202033 -0.112967 0.175377 253 -27 -19
-0.051503 -0.114540 0.138149 3 -255 -1
-0.174549 0.029265 0.326534 -93 233 45
0.036513 -0.119826 -0.452768 -3 -255 15
0.122001 0.064282 0.315207 191 155 67
0.095019 0.055720 -0.144750 71 217 -113
-0.130406 -0.005571 -0.288333 -5 -241 83
-0.080221 -0.113686 -0.332273 -1 -255 -5
-0.053090 0.124343 -0.030617 -15 247 -61
-0.029896 0.038686 -0.243478 -7 251 -47
0.160907 -0.122705 -0.427861 -11 -255 7
-0.148668 -0.074873 0.459904 -53 -79 237
0.126230 -0.080637 -0.456874 107 -7 -231
0.183119 0.022557 0.164140 233 101 -27
0.026433 -0.120073 -0.381760 -3 -255 -11
0.188946 0.007566 0.008242 253 27 -1
-0.150300 0.061626 0.080894 -235 99 7
0.015500 -0.086133 -0.465220 1 -73 -245
-0.114750 -0.094497 -0.191702 -255 -1 -5
0.126178 0.112382 0.111708 245 69 7
-0.124401 0.066978 0.414470 47 -249 -29
0.160674 -0.104122 -0.176853 -1 1 -255
-0.184732 0.005529 0.171205 -243 7 73
-0.188860 -0.107973 0.033943 -249 -57 -1
0.127262 -0.122141 -0.442969 -9 -255 9
0.143053 -0.106683 0.415358 -197 -121 -109
-0.021445 -0.120564 -0.370725 1 -255 -11
-0.012122 -0.105313 0.366009 -1 -243 81
0.159159 0.033626 -0.228498 -15 255 -9
0.131250 0.087036 -0.069151 85 213 -109
-0.101545 0.121270 0.138220 -53 247 39
-0.158569 0.036305 -0.153956 -53 249 1
-0.068750 -0.119557 -0.396023 1 -255 -11
-0.155936 -0.115042 0.031029 3 -255 -1
-0.098997 -0.028608 -0.451701 -47 221 -119
-0.080125 -0.114840 -0.041207 1 -255 -1
0.109408 -0.114773 -0.108734 -1 -255 -1
-0.139039 -0.054679 0.230395 -241 -63 57
-0.028615 -0.105729 0.364274 -1 -243 81
-0.065952 -0.118570 -0.412851 1 -255 -11
0.140082 0.084436 0.096681 231 107 7
0.196023 0.022942 0.269626 157 201 1
-0.104688 0.010589 0.457759 -85 179 159
-0.074483 0.129442 -0.003219 -15 251 -43
-0.189967 -0.024515 0.200558 -1 -173 187
0.073242 -0.115331 -0.239328 1 -255 -5
-0.143313 -0.098202 0.353727 -95 -229 63
0.106238 0.036211 -0.231765 23 251 -43
-0.123180 -0.102184 0.480671 -31 -125 219
0.105124 0.032218 0.456653 75 -185 159
0.002525 0.076843 -0.122227 9 221 -127
0.112655 -0.079733 -0.215122 255 -3 -5
-0.081831 -0.087214 -0.305178 -1 -255 -3
-0.128221 -0.090775 0.476969 -215 -35 133
0.068757 -0.114664 -0.137320 -1 -255 -1
-0.173048 -0.015640 0.209822 -1 -213 141
0.026298 0.077800 0.314272 3 241 87
0.001850 0.010999 -0.374371 7 245 -71
0.086328 -0.087720 -0.283565 -1 -255 -3
0.189634 0.001147 -0.022292 253 27 -1
0.098007 -0.120183 -0.386562 -1 -255 -13
0.092206 0.038949 -0.175293 31 221 -123
0.198696 -0.063728 0.362407 241 -13 79
-0.144744 -0.028711 -0.427112 1 255 -15
-0.063455 -0.006711 -0.416481 -25 237 -89
-0.076329 0.121793 0.154665 -31 251 39
0.124154 0.036658 -0.216396 25 251 -35
-0.203057 0.014118 0.269855 -213 141 7
-0.125435 -0.115434 0.140733 3 -255 -1
-0.154738 0.042329 0.166578 -113 229 1
0.038214 -0.109843 0.276794 -1 -255 -5
-0.108298 -0.115902 -0.475104 -95 105 -211
0.160347 -0.041209 0.337370 3 -145 -209
0.162754 0.035146 0.310960 63 245 29
0.180707 0.022512 -0.167225 181 179 1
-0.177477 -0.017621 -0.382825 -237 57 -75
-0.106392 -0.038015 0.488917 -49 -21 249
-0.172731 -0.116502 0.409500 -199 -133 87
0.104442 -0.115505 0.110809 -3 -255 -1
0.190422 -0.031695 -0.051601 255 -5 -1
0.044311 -0.108992 0.483502 3 -151 207
0.186830 -0.079780 -0.051771 253 -25 -1
-0.180477 0.026478 0.171961 -153 203 -19
0.165577 -0.124080 -0.377925 -11 -255 -9
0.094474 -0.115124 -0.051830 1 -255 -1
0.029638 -0.110008 0.273559 -1 -255 -5
-0.142593 0.069786 0.410201 -193 161 35
-0.027801 -0.115229 -0.220555 -1 -255 -5
-0.154578 -0.123080 -0.440876 13 -255 7
0.188269 -0.069118 0.008984 255 -23 -1
-0.053884 0.116553 -0.045512 -19 223 -123
0.044995 -0.120879 -0.377065 -3 -255 -11
-0.006658 0.076340 0.452484 -5 255 3
0.117848 0.011686 -0.354272 -161 197 -7
-0.066994 -0.114827 0.141363 3 -255 -1
0.136848 -0.072217 -0.435069 119 19 -225
0.116850 0.106240 -0.042689 53 217 -121
-0.188114 -0.072219 0.039739 -253 -23 -1
0.034344 0.067890 0.341455 13 239 87
0.115210 0.067890 0.318558 145 195 75
0.191466 -0.018481 0.109666 255 9 -1
0.060988 -0.120250 -0.489656 43 -173 -181
0.047199 -0.104306 0.367874 -1 -241 83
0.047228 0.132111 0.093119 13 255 21
0.124922 0.016949 -0.349977 -161 197 -7
-0.104983 0.118510 0.152260 -53 247 39
-0.062623 -0.113493 -0.314983 -1 -255 -3
-0.029883 -0.109317 0.416421 -1 -241 85
-0.111813 0.126610 0.022450 -63 247 -21
0.022416 0.032198 -0.280569 7 251 -47
0.190218 -0.013345 -0.157228 255 7 19
-0.156714 -0.108820 0.397801 197 -121 -109
0.040800 -0.119114 -0.453026 -3 -255 15
-0.150291 0.071802 -0.049685 -233 105 7
0.175616 -0.114940 -0.022379 1 -255 -1
0.200670 -0.015166 0.182666 243 53 -59
-0.127548 -0.013024 -0.221516 -7 -233 -103
0.039373 0.009294 -0.376594 9 245 -71
0.049367 -0.115485 -0.221095 -1 -255 -3
-0.018035 0.129890 0.118375 -3 253 39
0.188325 -0.066846 0.024648 255 -23 -1
-0.077952 -0.114583 -0.282442 1 255 5
0.186120 -0.111637 -0.169269 245 -49 53
0.126623 -0.115000 -0.098572 -1 -255 -1
0.017425 -0.111062 0.482345 3 -151 207
0.124631 0.028105 -0.266046 23 249 -49
0.022258 0.077031 0.476536 -1 239 -91
0.113308 -0.093009 0.469351 77 -63 235
-0.044505 -0.058133 0.499196 -15 -33 253
-0.110508 0.017863 -0.320520 -27 247 -55
-0.089886 -0.114818 0.040111 1 -255 -1
0.128704 -0.098090 0.371706 95 -229 63
0.056123 -0.077428 0.484740 -3 255 -7
-0.143803 -0.130610 0.174755 -7 -67 -245
-0.153760 -0.089675 0.461673 -245 -25 65
-0.060904 -0.110283 0.302345 -1 -255 -5
0.177055 -0.124093 -0.370513 -9 -255 -3
-0.098804 0.112256 0.188273 -31 247 57
-0.171692 -0.017382 0.428205 -185 157 79
0.113034 -0.082299 -0.184860 255 -3 -5
0.158763 -0.114523 -0.148701 1 -255 -1
0.111014 -0.115678 0.056265 -3 -255 -1
-0.040384 0.114112 0.202471 -15 249 53
-0.020619 0.115581 0.197829 -5 249 53
0.160671 0.022028 0.380023 131 201 89
-0.037599 -0.105944 0.485655 -3 -151 207
0.166548 0.019697 0.378027 131 201 89
-0.143424 0.062903 0.186873 -233 101 21
0.013196 -0.009292 -0.431904 11 231 -105
-0.109944 -0.093408 0.436985 35 -215 -133
0.076515 -0.100987 0.486939 15 -139 213
-0.069468 -0.114989 0.190095 9 -253 21
-0.137663 -0.114475 -0.155111 -1 -255 -1
0.035582 -0.046238 0.481201 7 45 251
-0.007535 -0.119137 -0.419472 1 -255 -11
-0.185825 0.016221 0.052642 -231 107 1
-0.065692 -0.121660 -0.348172 1 -255 11
-0.034521 0.062511 -0.144950 -19 221 -127
-0.013103 -0.118240 -0.424713 1 -255 -13
0.190600 -0.031936 0.008771 255 -5 -1
0.196365 -0.123878 0.179221 -7 23 253
0.040108 -0.119468 -0.393534 -3 -255 -11
0.063466 0.072828 0.323690 15 239 87
-0.189623 -0.099128 -0.074831 -249 -55 -3
0.021044 -0.114655 0.153571 -3 -255 -1
0.048032 0.046869 -0.182133 -71 89 227
-0.005123 -0.110809 0.329752 -1 -255 -5
-0.062815 -0.069498 -0.487890 -65 -71 -237
-0.176376 -0.077053 0.426947 -251 -27 31
0.063924 -0.007356 -0.418083 25 237 -89
0.098596 0.054598 0.373160 67 235 71
0.034643 -0.114591 -0.083357 -3 -255 -1
-0.166354 -0.100385 -0.347985 9 31 253
0.051050 -0.004738 0.479762 15 169 191
-0.159535 0.052712 -0.106784 -197 153 -53
-0.053243 0.051388 0.399963 -33 187 171
-0.114537 -0.081537 -0.462887 -105 -73 -221
-0.041036 -0.117684 0.173899 243 -47 61
-0.013918 -0.114359 0.003200 1 -255 -1
0.057584 0.042659 0.477617 19 -101 233
0.202461 0.038373 -0.060116 39 -251 -3
-0.188294 0.009215 -0.161287 -233 103 5
0.122751 -0.117434 0.179773 -1 -251 41
0.189464 0.004083 0.036274 253 27 -1
-0.177126 0.027280 -0.055219 -187 175 1
0.190547 -0.023690 -0.035560 255 -5 -1
-0.040897 -0.114373 -0.069366 1 -255 -1
-0.126057 0.081881 0.223475 29 243 67
0.041481 0.010500 -0.370548 21 243 -73
-0.036156 0.129175 -0.015805 -15 247 -63
-0.028950 0.058403 0.381074 -5 251 45
-0.051170 0.008886 -0.374663 -23 243 -73
-0.102610 0.072814 -0.109871 -57 219 -119
0.190858 -0.040069 0.099694 255 -15 -1
0.195940 -0.015667 0.210063 -1 -213 141
0.128547 -0.114957 -0.084776 -1 -255 -1
0.189356 -0.024896 -0.345128 247 41 -55
-0.137092 -0.059999 -0.434168 -123 -15 -223
-0.018873 0.077021 0.458935 -5 255 3
-0.131052 0.086921 0.202748 -233 103 23
0.180832 0.022852 0.043763 187 175 1
0.169715 0.033228 -0.033265 145 209 -1
-0.120720 -0.001514 -0.394222 31 199 -157
0.133033 -0.100050 0.429135 -209 -121 -83
-0.168507 0.016360 0.384176 -131 201 89
0.188992 -0.099637 -0.364654 249 39 -43
0.145615 -0.115685 0.056954 1 -255 -1
0.188637 -0.097259 0.000431 215 135 -5
0.061014 -0.120144 -0.389042 -1 -255 -13
-0.186474 -0.112054 -0.143485 -249 -51 -1
-0.053072 0.057366 0.383182 -23 251 45
-0.128927 -0.105840 -0.176405 5 -15 -255
-0.058971 0.007822 -0.375187 -21 245 -71
0.053741 0.075485 0.461297 5 255 3
-0.191642 -0.026106 -0.178270 -253 9 31
-0.121900 -0.005895 -0.288361 -5 -241 83
0.008738 -0.019732 -0.455638 15 187 -173
0.186405 -0.110567 0.177500 -7 23 253
-0.172154 -0.030316 -0.406488 -217 67 -115
0.177065 -0.076640 -0.417719 241 -15 -83
0.026657 0.118878 0.181604 5 249 53
0.048024 0.041520 -0.192421 9 253 -21
-0.022398 -0.003876 -0.417687 -9 239 -87
0.120039 0.026912 -0.273048 27 249 -47
0.142642 -0.044205 -0.449553 97 169 -165
0.047350 -0.115912 -0.179754 -1 -255 -3
-0.184219 -0.119542 0.011889 -211 -141 -3
-0.086264 0.117430 0.172240 -31 247 57
0.086272 -0.046000 -0.476915 67 123 -213
0.168769 -0.071932 0.442775 251 -27 31
-0.190627 -0.031113 -0.031283 -255 -5 -1
0.182914 -0.117154 0.125436 -255 -3 5
-0.031501 -0.114763 -0.252458 -1 -255 -3
-0.056031 0.133182 0.075241 -11 255 21
0.189888 -0.018274 -0.140499 255 7 -1
0.047502 -0.114875 0.132581 -3 -255 -1
-0.189217 -0.074375 0.399832 13 -253 29
-0.114623 0.059536 0.344452 -145 195 75
-0.110069 -0.087848 -0.290147 -1 -255 -3
0.038470 0.109859 -0.060201 17 223 -123
0.087694 -0.109741 0.265095 -1 -255 -5
-0.124700 0.054683 0.333421 -159 191 57
0.189518 -0.095321 -0.171064 235 -11 97
0.088300 -0.102452 -0.325692 1 -189 171
0.088777 -0.110657 0.323150 -1 -255 -5
0.187086 0.013100 -0.178101 233 103 5
-0.186285 -0.081963 0.352223 17 -61 -247
-0.119462 -0.064180 -0.467392 -101 -7 -235
0.051533 0.130317 -0.003759 15 251 -39
0.182704 0.021235 -0.102787 193 165 -1
-0.027868 -0.114261 0.146026 3 -255 -1
0.058104 0.027553 -0.298271 19 247 -57
0.110438 -0.120654 -0.446898 -25 -253 5
0.041915 -0.126515 -0.111287 -243 -77 1
-0.033593 -0.109191 0.239025 -1 -255 -5
0.047996 0.037818 0.438147 -25 187 -173
0.077581 0.048064 -0.176308 67 -67 -237
-0.190434 -0.109700 0.114431 -247 -57 -19
-0.190988 -0.029430 0.390419 -239 39 81
-0.020874 -0.114521 -0.063184 1 -255 -1
-0.089517 0.035492 -0.244150 -19 249 -47
-0.006122 -0.046320 -0.492699 -17 129 -219
-0.162585 0.037607 0.208066 -139 213 1
-0.141851 -0.115080 0.054068 3 -255 -1
-0.155698 0.032762 -0.240290 15 255 -9
-0.180973 -0.097968 -0.398534 -243 51 -59
-0.056823 0.034961 -0.259168 -19 249 -47
0.138578 0.031891 0.373818 101 227 59
-0.070170 0.133289 0.056604 -11 255 -1
-0.127959 -0.019610 -0.210915 -5 -175 -187
0.024682 -0.114768 0.174297 -11 -251 41
-0.038008 -0.113983 -0.292087 -1 -255 -3
0.179723 -0.058659 -0.183751 5 -95 -237
-0.179329 0.024497 0.093378 -181 179 -1
-0.147923 -0.049118 0.474990 -95 -25 235
-0.087064 -0.114956 0.118541 3 -255 -1
-0.027491 0.130601 0.112743 -3 253 39
-0.190065 -0.085622 0.389440 15 -147 207
-0.125251 0.093260 0.223632 -187 167 49
-0.099768 0.069495 0.460027 11 -249 57
-0.111138 -0.017319 -0.422131 -45 229 -103
0.128402 -0.102314 0.279776 235 -97 -1
0.079710 -0.073920 0.486157 91 -45 235
0.015806 -0.106685 0.362384 -1 -241 83
0.083227 -0.067834 0.485256 85 -49 235
-0.041627 -0.114493 -0.309584 -1 -255 -3
-0.058756 -0.077537 0.488825 -15 -183 177
0.123316 -0.115701 0.100237 -3 -255 -1
-0.038561 0.017829 -0.344191 -7 249 -57
-0.124691 -0.107300 0.312017 -255 -23 -1
-0.197177 -0.027310 0.369513 -231 83 67
0.041476 -0.118249 -0.441297 -3 -255 15
0.031762 0.026131 -0.309131 7 249 -57
0.142185 0.060625 -0.109511 91 209 -115
0.148171 0.026146 -0.323609 -3 253 -33
0.042493 0.055012 0.391174 7 237 93
0.037115 -0.114626 -0.285566 1 -255 -5
0.076194 -0.110699 0.297846 -1 -255 -5
-0.006006 0.039658 -0.244793 -3 251 -45
-0.187033 -0.035755 0.402144 -241 -13 83
0.097146 0.048697 0.463099 163 23 193
-0.191365 -0.033763 -0.174179 -251 1 41
-0.107555 -0.116323 -0.132645 -1 -247 65
0.000688 -0.114367 -0.308382 -1 -255 -3
0.131020 -0.097473 0.374451 95 -229 63
0.171572 0.030481 -0.167703 139 213 -1
-0.108923 -0.120633 -0.438363 25 -253 5
0.029836 0.008685 0.471192 9 157 201
0.192077 -0.064364 0.384772 231 83 69
-0.060157 0.133865 0.065093 -11 255 21
-0.069676 0.018323 0.462092 -33 11 253
0.019571 -0.115461 -0.215729 -1 -255 -3
0.169624 0.032031 -0.162729 139 213 -1
0.090955 -0.115310 0.049117 -3 -255 -1
-0.190448 0.007341 0.152073 -245 -3 73
0.189184 -0.001669 -0.145426 253 25 -1
0.044177 -0.114416 -0.162485 -1 -255 -1
0.188658 -0.089720 0.110746 255 5 -21
-0.189962 -0.025400 0.183333 -157 185 -79
-0.128363 -0.071506 0.271694 -255 -23 -1
0.114465 -0.067397 -0.466591 17 -251 -35
-0.183746 0.019647 -0.135885 -193 165 -1
-0.161833 -0.122654 -0.410454 15 -255 -1
-0.012192 -0.104585 0.368591 -1 -243 81
-0.004456 0.014459 -0.361134 -9 245 -71
-0.126994 -0.093036 0.430648 35 -215 -133
-0.041351 -0.042647 0.481609 255 1 21
-0.153591 0.038586 0.312564 -93 235 35
0.040289 -0.075518 -0.467980 1 -73 -245
0.049918 0.047692 -0.182318 -1 239 -89
-0.034611 -0.119484 -0.033452 -249 57 13
-0.136945 0.074830 0.205327 -231 105 21
-0.127035 -0.082903 0.266093 -255 -23 -1
-0.190199 -0.038956 -0.024383 -255 -15 -1
-0.190695 -0.013136 -0.162220 -255 7 19
0.121911 -0.036206 -0.453479 65 199 -147
0.147885 -0.123550 -0.349837 -9 -255 -3
0.179585 0.023436 -0.162688 181 179 1
0.109824 0.039868 -0.207145 37 249 -41
0.112845 -0.115675 0.044754 -3 -255 -1
0.027662 -0.087945 -0.266254 -1 -255 -3
0.105754 -0.110589 -0.185975 1 -255 -5
0.112677 -0.054858 -0.298747 255 1 -1
0.020399 -0.010324 -0.433057 11 231 -105
0.083360 0.056877 -0.147337 31 219 -127
-0.079104 -0.114354 -0.146059 -1 -255 -1
0.061974 -0.020189 -0.446474 27 231 -103
-0.121585 0.119019 -0.008235 -87 231 -63
0.153158 -0.105128 -0.447411 167 17 -193
-0.148353 -0.114241 -0.174052 -1 -255 -1
0.107740 0.124694 0.105718 69 243 35
0.072672 -0.115483 0.167515 -1 -183 -179
-0.113857 0.037556 -0.168590 -71 217 -115
0.191614 -0.021782 0.080213 255 -5 -1
-0.170295 -0.020540 0.436935 -203 117 99
-0.148977 -0.115652 0.148457 3 -255 -1
-0.177148 0.030211 0.188999 -143 211 -5
-0.114545 -0.030221 -0.286287 -255 1 -1
0.019327 -0.111072 0.207664 -1 -255 21
-0.187504 -0.082439 0.028808 -255 -3 -1
-0.173994 -0.115276 -0.005275 1 -255 -1
0.137557 0.075531 0.195220 231 105 21
0.071008 -0.115101 -0.006992 -3 -255 -1
0.036711 -0.114750 -0.016973 -3 -255 -1
-0.014848 -0.104027 0.400155 1 -179 -183
-0.012126 0.123359 0.161978 -3 253 39
-0.068111 0.081176 0.298090 -13 239 87
0.047401 0.053898 0.393196 7 237 93
0.190144 0.002137 -0.188504 251 41 13
0.035001 -0.114570 0.146703 -3 -255 -1
0.145898 -0.031716 -0.330628 -3 -175 187
0.018537 0.036012 0.477114 5 -169 191
-0.094863 0.120266 0.151788 -31 251 39
-0.133080 -0.111011 -0.460324 -133 99 -195
0.144278 0.047677 0.267458 145 211 -9
-0.163217 0.037281 0.079361 -133 217 3
-0.076878 0.132937 0.054840 -33 253 -1
0.186257 -0.029582 -0.364535 245 43 -53
0.045780 -0.110337 0.266221 247 63 -1
0.129482 0.072663 0.432536 7 255 -9
0.188639 -0.052942 -0.123809 255 -15 -1
-0.067528 -0.068504 -0.486741 -61 -137 -207
-0.001402 0.087724 -0.103072 -5 223 -123
-0.009483 -0.107016 0.362941 -1 -243 81
-0.034862 -0.118401 0.152849 -249 57 -1
-0.080860 -0.115150 -0.216701 -1 -255 -5
-0.114708 -0.121530 -0.453032 25 -253 5
0.126181 -0.114422 -0.147453 1 -255 -1
0.123738 0.062085 -0.117286 61 213 -127
0.072238 0.073696 -0.120647 17 221 -127
0.048984 0.087058 0.284302 13 243 77
-0.052723 -0.120751 -0.362555 3 -255 -13
-0.086125 -0.111373 -0.266164 -255 -1 1
-0.146047 -0.096207 0.403000 197 -121 -109
0.187701 -0.087455 0.065777 255 11 -9
0.031905 -0.013130 0.487750 9 163 197
0.187739 -0.085075 0.051360 255 -3 -1
0.022195 0.134260 0.077309 1 255 17
0.146886 0.079857 -0.061731 233 105 9
0.174444 -0.069819 0.437941 209 117 87
-0.190928 -0.070773 -0.172237 -245 1 73
0.138690 -0.009943 -0.405425 21 191 -167
-0.187086 -0.110244 -0.093200 -249 -57 -3
-0.192294 -0.082212 0.128118 -249 21 -49
-0.014622 0.045608 0.478914 1 247 -65
0.078905 0.108871 0.209595 35 233 99
0.053574 -0.105650 0.364514 -1 -241 83
0.076441 -0.120903 -0.382849 -1 -255 -13
0.158562 -0.019845 0.204661 -1 -173 187
-0.053365 0.132107 0.093958 -13 255 19
0.105028 -0.088142 -0.462233 225 13 -121
-0.089170 -0.111853 0.215350 -1 -251 41
0.040640 0.018809 -0.341949 7 249 -57
-0.084721 -0.103699 0.370368 -1 -243 81
0.042313 -0.114627 0.141099 -3 -255 -1
0.128402 -0.102314 0.279776 235 -97 -1
0.113516 -0.011543 0.472582 63 137 205
0.118241 -0.115674 0.052313 -3 -255 -1
0.175228 -0.102504 0.356039 -33 -15 -253
-0.041679 0.045920 -0.176509 31 115 225
0.149162 -0.080631 -0.442140 25 249 -45
-0.100714 0.104585 0.190025 -27 253 9
0.179916 -0.003475 -0.355299 233 89 -53
-0.170581 0.036051 0.249526 -67 245 -11
0.173637 -0.093551 0.354454 -21 -33 -253
-0.136375 0.104882 -0.025718 -163 191 -49
-0.149237 0.063868 0.123902 -237 95 7
0.014366 -0.114405 0.139521 -3 -255 -1
-0.125455 0.109727 0.155350 -199 157 27
-0.135593 -0.115409 0.074122 3 -255 -1
0.059518 0.076017 0.316090 15 239 87
-0.144520 -0.114365 0.454016 -63 -239 65
-0.137659 0.021904 -0.352592 27 249 -47
0.074341 -0.020351 -0.443115 31 235 -95
-0.152787 0.059272 0.397892 -237 87 31
-0.160445 0.004330 0.419210 -181 139 113
-0.191760 0.027599 0.260008 -125 223 -3
-0.010260 -0.114223 0.084345 1 -255 -1
0.199744 -0.063423 0.360517 237 -9 95
-0.170370 -0.026456 -0.406776 -173 141 -125
-0.116809 -0.115527 0.163210 3 -255 -1
0.062439 -0.110199 0.280976 -1 -255 -5
0.112336 0.025242 -0.288348 29 247 -57
-0.021819 -0.115460 -0.199189 -1 -255 -5
0.184196 -0.010139 0.380123 217 105 83
0.185421 0.016554 0.060617 231 107 1
-0.081904 -0.110700 0.222896 -1 -251 41
-0.083586 -0.096231 0.391819 -3 -241 83
-0.103057 0.088202 -0.081893 -57 217 -119
-0.190629 -0.124676 -0.345495 -251 -31 -37
0.001387 -0.114441 -0.033117 -3 -255 -1
-0.109245 -0.028496 0.487522 -49 43 247
0.104691 0.029970 0.444861 19 -253 25
0.179406 -0.086140 0.408210 253 -19 23
-0.038363 -0.078194 -0.467172 1 -73 -245
0.089946 0.085420 0.276722 33 241 75
-0.021231 -0.097770 0.388877 -1 -243 81
-0.109957 0.038984 -0.211393 -37 249 -41
0.011110 0.040225 0.479121 9 -83 241
-0.054268 0.015045 0.465518 -29 119 223
-0.056597 -0.114476 -0.079510 1 -255 -1
-0.136835 -0.121510 -0.424116 13 -255 7
0.193820 0.024643 0.251728 157 201 -11
0.117041 0.086745 0.262189 133 207 67
0.133191 -0.090437 0.254415 235 -97 -1
-0.127901 -0.073186 0.282657 -255 -23 -1
-0.019822 -0.114412 -0.107418 1 -255 -1
0.107559 0.119267 0.140277 53 247 37
-0.136272 -0.002326 -0.269065 -5 -255 -3
-0.188722 -0.110435 0.052503 -249 -57 -1
-0.082859 0.127786 0.111459 -31 251 39
-0.066398 0.075474 0.464128 -13 255 3
0.151723 -0.115685 0.074016 1 -255 -1
0.035018 0.060295 0.370763 7 251 45
-0.189221 -0.087456 0.087172 -255 5 -7
-0.188998 0.005092 -0.037056 -253 27 -1
0.074147 0.132778 0.042829 33 253 -1
0.067890 0.044957 0.477232 23 -19 253
0.046047 0.122048 0.165049 13 249 53
-0.186760 -0.018656 -0.346029 -241 61 -55
-0.188058 -0.078163 0.083372 -253 -25 1
-0.190213 -0.006280 -0.007906 -255 9 -1
-0.099126 -0.115135 0.102758 3 -255 -1
-0.199125 0.058127 -0.070808 -69 227 -95
-0.190699 -0.012648 0.011396 -255 9 -1
-0.131464 0.093375 0.172044 -231 105 21
-0.176886 -0.114943 -0.112341 -1 -255 -1
0.145452 -0.026452 0.205775 255 -11 13
0.190455 -0.023103 -0.071325 255 -5 -1
-0.114219 0.005770 0.458098 -83 179 161
-0.113479 0.048745 -0.148712 -75 211 -121
-0.192974 -0.014597 -0.313904 -255 -3 -7
0.192634 -0.043847 -0.337518 -9 -141 213
0.152309 -0.114637 -0.124084 1 -255 -1
-0.147238 -0.066025 -0.347111 11 -27 253
0.188602 -0.066574 0.008695 255 -23 -1
0.175566 0.028861 0.152039 173 187 -7
-0.161000 0.038563 0.093807 -157 201 3
0.133877 -0.095806 0.372589 95 -229 63
-0.087730 0.002979 -0.380359 -29 243 -71
0.072026 -0.106023 0.471590 -9 -227 -113
-0.029363 -0.114399 -0.067897 1 -255 -1
0.137797 -0.079371 0.232574 235 -97 -1
-0.093964 -0.114920 0.047066 1 -255 -1
-0.033069 0.048776 -0.168892 -19 221 -127
-0.126834 0.102335 0.179769 -187 169 43
0.090547 -0.115411 0.125736 -3 -255 -1
-0.191276 -0.029969 0.083243 -255 -5 -1
-0.189752 -0.035597 -0.085561 -255 -15 -1
-0.020080 0.106869 0.225460 -3 243 77
-0.153985 -0.114668 -0.126876 -1 -255 -1
-0.030292 -0.109580 0.248193 -1 -255 -5
-0.180721 0.023198 -0.074022 -193 165 -1
-0.082218 -0.114641 -0.132323 -1 -255 -1
0.049751 -0.123860 0.243634 -247 -63 1
0.131026 0.100319 0.127177 229 109 13
-0.167606 -0.030264 0.329273 -1 -173 -187
-0.120044 -0.112487 0.469365 -15 -227 115
0.048654 -0.121396 0.270017 -247 -63 1
-0.167949 -0.024134 -0.206119 -5 -173 -189
0.010770 -0.114020 -0.497572 19 107 -231
0.020953 -0.119493 -0.389177 -3 -255 -11
0.127429 0.069635 -0.102097 61 213 -127
0.033176 -0.105994 0.472544 -1 -223 -123
0.073572 0.010075 -0.361918 21 243 -71
0.198014 -0.036348 0.363469 245 -7 73
-0.112438 0.073759 0.427361 -17 255 -7
-0.139677 -0.112470 0.435347 209 -121 -83
-0.191510 -0.016308 -0.180392 -255 17 13
0.053723 -0.111152 0.342453 -1 -255 -5
-0.206882 -0.009948 0.318108 -241 61 57
0.140958 -0.063514 0.227785 253 -29 21
0.194431 -0.070126 0.377448 245 -21 69
0.067053 0.070487 0.457527 -11 -249 57
-0.190924 -0.073623 0.401933 -175 -163 87
-0.116880 0.012024 -0.342038 69 241 -45
-0.059553 -0.114493 -0.154937 -1 -255 -1
-0.203082 -0.068874 0.348948 3 -41 -251
0.195994 -0.020476 0.320684 11 -185 -175
0.187694 -0.073466 -0.032556 255 -23 -1
-0.030256 -0.107667 0.476653 1 -223 -123
-0.045241 -0.121497 -0.490047 7 -255 19
0.166366 -0.112127 -0.176789 -5 -15 -255
-0.189778 -0.014585 -0.125837 -255 7 -1
-0.156496 0.054663 -0.036558 -237 93 5
-0.188377 0.010800 0.158103 -243 13 75
-0.159068 0.048370 -0.039527 -237 93 5
-0.106421 0.116601 0.162316 -49 245 47
-0.121080 -0.115791 0.142893 3 -255 -1
0.148106 0.060679 0.410698 237 69 65
0.116042 -0.122309 -0.468722 -11 -253 19
0.044950 -0.103913 0.401065 1 -179 -183
0.108610 0.122599 -0.007785 71 239 -57
0.187680 -0.027287 0.392376 227 89 75
0.008711 -0.114550 0.017850 -3 -255 -1
0.172413 0.031333 0.095848 157 201 -1
-0.084622 0.037182 0.470435 -95 -133 195
-0.158088 -0.115376 -0.023409 1 -255 -1
0.182659 0.021113 0.110133 181 179 -1
-0.180371 0.023385 -0.151144 -189 171 -5
0.089995 -0.119275 -0.449260 -7 -255 19
-0.019311 0.062347 -0.146812 -9 221 -127
-0.061567 -0.114562 0.020817 1 -255 -1
0.125178 0.110273 0.137640 191 167 23
0.089706 0.032470 -0.258669 19 251 -45
-0.065644 0.102237 0.233920 -13 243 77
0.187787 -0.097498 -0.026063 215 135 -5
0.029590 -0.115869 -0.187689 -1 -255 -3
0.067471 -0.037850 -0.476899 45 193 -159
0.037064 -0.114711 0.049372 -3 -255 -1
0.141019 0.019604 0.412499 81 231 73
0.097219 -0.108801 0.478750 33 -153 201
-0.171398 -0.087050 -0.177905 -1 -29 -253
-0.137741 0.086281 0.127589 -229 109 13
-0.114407 -0.091841 0.428005 -53 -243 59
-0.170628 -0.086805 0.431212 -253 -11 23
0.146192 0.068226 0.130588 237 93 17
-0.079614 0.129444 0.100477 -33 253 21
0.118243 0.072752 0.422671 19 255 1
0.019327 -0.114404 0.169921 -3 -255 -1
0.136496 -0.101007 0.181169 255 -1 5
0.134773 -0.086284 0.240601 235 -97 -1
-0.036412 0.045993 0.415896 -1 181 -181
0.139371 -0.069851 0.477190 221 -37 121
-0.161872 0.029715 -0.273121 -91 237 -29
0.115534 -0.096019 -0.447492 117 15 -227
-0.033627 -0.000852 -0.406475 -9 239 -87
0.177607 -0.022880 -0.206922 5 -173 -189
-0.187875 -0.000467 -0.318462 -229 95 -59
-0.117033 -0.121476 -0.368941 11 -255 -9
0.123258 -0.114871 -0.094040 -1 -255 -1
-0.031454 -0.114418 -0.279535 -1 -255 -3
0.187466 -0.038536 -0.363729 245 39 -57
0.133425 0.095305 0.136374 231 109 17
-0.001646 -0.102438 0.466599 1 -223 -123
0.136796 -0.108097 0.432099 -209 -121 -83
0.190562 -0.034257 0.000386 255 -5 -1
-0.114431 -0.080569 -0.220898 -255 -3 -5
0.025622 -0.119311 -0.401955 -3 -255 -11
-0.153488 0.059190 0.009841 -235 99 7
-0.114609 -0.072430 -0.284554 -255 -3 3
0.127889 -0.067655 -0.457595 21 -253 -25
-0.099215 -0.114934 -0.110629 -1 -255 -1
0.193261 -0.032228 -0.190607 253 13 23
0.041486 0.056872 -0.154166 17 221 -127
0.104021 0.115040 0.170198 49 245 47
0.013725 -0.034408 -0.481751 13 193 -167
0.137210 0.040646 -0.155107 125 221 -33
-0.189287 -0.101695 -0.088287 -249 -55 -3
-0.096092 -0.087144 -0.293391 -1 -255 -3
-0.113525 -0.110863 0.333869 -1 -255 -5
-0.016531 -0.109471 0.242018 -1 -255 -5
0.154219 0.023213 -0.339647 93 235 -41
0.167957 -0.126331 0.380933 85 -231 69
0.179122 -0.121476 -0.404317 239 -59 -65
-0.188711 -0.060235 -0.012238 -253 -23 -1
-0.051035 -0.115825 0.175982 9 -253 21
-0.159321 0.045326 0.018989 -235 99 7
-0.095237 -0.024635 -0.445686 -45 223 -115
0.081593 0.104998 0.220201 33 241 75
-0.147839 -0.066857 0.476243 -1 -255 13
-0.189722 0.005281 -0.189908 -251 41 13
-0.146273 -0.067643 0.184502 -241 -63 57
0.059906 0.023542 -0.314117 19 247 -57
-0.151868 0.059281 0.066595 -235 99 7
0.096088 -0.114609 -0.139289 -1 -255 -1
-0.118698 -0.002417 -0.272217 -5 -255 -3
0.134811 0.089242 0.148762 231 109 19
0.160457 0.048168 -0.067663 81 -63 233
0.137002 -0.051791 -0.187146 5 -95 -237
0.090287 0.130709 0.056147 33 253 -1
-0.179976 -0.049072 -0.187647 -5 -95 -237
0.201400 -0.092684 0.167334 241 -15 -79
-0.046293 -0.115852 -0.199180 -1 -255 -5
-0.188916 -0.059127 0.005068 -253 -23 -1
-0.047345 -0.118814 -0.414572 1 -255 -11
0.158015 0.050103 -0.022833 237 93 5
-0.004894 0.094705 -0.089654 -5 223 -123
-0.135784 0.093657 0.091095 -231 107 7
-0.194714 0.059524 -0.071793 -27 227 -113
0.084889 0.077628 -0.109438 71 217 -113
0.005659 0.021273 -0.337014 7 249 -57
0.161221 -0.114307 -0.131344 1 -255 -1
0.012905 -0.110342 0.303767 -1 -255 -5
0.184743 0.018342 0.148253 227 113 -13
-0.188391 -0.061857 -0.158053 -251 -21 33
0.136516 0.098706 -0.003140 231 109 11
0.086506 -0.104386 0.465785 -55 -219 -119
-0.136241 -0.082810 0.464337 -107 -45 227
0.142318 0.082144 0.048503 231 107 7
-0.050553 0.114463 -0.049495 -19 223 -123
0.048383 -0.120687 0.276280 247 63 -1
-0.053740 -0.114674 -0.036806 1 -255 -1
0.184807 -0.114579 -0.056945 251 -51 -1
-0.190814 -0.029708 0.045591 -255 -5 -1
-0.186495 -0.091261 -0.013275 -255 -19 -3
-0.114464 -0.095985 -0.213331 -255 -1 -5
-0.187565 -0.104871 -0.176747 3 -7 -255
0.062060 0.042254 -0.217821 13 251 -45
0.136234 -0.089597 -0.177409 -1 -33 -253
0.165525 0.014952 -0.353452 151 197 -59
0.127137 0.006668 -0.385016 -27 201 -153
-0.190241 -0.018494 -0.066728 -255 7 -1
-0.022280 0.087499 0.286381 -1 243 77
0.138774 0.091526 0.029678 231 107 3
0.184623 0.017778 -0.062833 235 99 1
0.161079 0.000229 0.267670 9 -253 33
0.112377 -0.090457 -0.226115 255 -1 -5
-0.050879 -0.106334 0.426133 -1 -241 85
0.151365 0.013183 0.417832 189 115 127
0.181192 0.022689 0.074445 181 179 -1
-0.104649 0.052713 -0.146367 -57 219 -119
0.008403 -0.115249 -0.236714 -1 -255 -3
0.150154 -0.056081 -0.427286 123 -15 -223
0.021514 0.078540 0.482026 9 -53 249
-0.187809 -0.005951 -0.328433 -229 95 -59
-0.144275 0.050289 0.239414 -233 101 23
0.093109 0.053282 0.380768 71 227 91
-0.174660 0.009193 -0.345746 -157 195 -47
-0.054530 -0.114638 0.027692 1 -255 -1
0.014650 -0.109910 0.285857 -1 -255 -5
-0.113999 0.035554 -0.231828 -25 251 -35
0.074328 -0.114843 -0.270851 1 -255 -5
0.094885 -0.115536 0.001628 1 -255 -1
-0.022345 0.091380 0.275001 -1 243 77
0.053382 0.125021 -0.027619 15 247 -63
0.144207 -0.003388 0.250585 255 -11 13
-0.167743 0.036819 0.252902 -67 245 -11
-0.101072 0.055405 0.357767 -41 235 89
-0.043731 0.064557 0.348255 -15 239 87
-0.152288 -0.114874 0.443450 -63 -237 67
-0.024056 0.039463 -0.242566 -7 251 -47
0.046109 -0.118202 -0.429498 -1 -255 -13
0.168726 0.035869 0.278078 69 245 7
-0.007128 0.030660 0.471860 -7 -167 193
-0.151030 -0.115399 0.102849 3 -255 -1
-0.201943 -0.014222 0.182635 -235 67 -75
0.121474 0.119398 0.106656 149 205 31
-0.189473 -0.020948 -0.319630 -1 -209 147
0.018889 0.118324 0.186110 5 249 53
0.161003 0.038607 0.245128 113 229 -11
-0.183153 -0.002582 -0.279438 -1 -253 37
0.188709 0.006065 -0.086643 253 27 -1
-0.035719 -0.121918 -0.142990 249 -57 1
0.044847 0.061326 -0.146147 17 221 -127
-0.188018 -0.114429 0.080245 -247 -61 -1
-0.196037 -0.002679 0.234015 -1 -237 93
-0.154392 -0.121622 0.172298 -5 -61 -247
0.011360 0.094010 0.265710 3 243 77
-0.028040 0.032785 0.473563 -7 -169 191
-0.067792 -0.115050 0.163160 3 -255 -1
-0.189888 -0.035101 -0.069881 -255 -15 -1
-0.158635 -0.029636 0.466470 -193 47 159
-0.149347 0.046266 0.204704 -233 101 17
0.107726 -0.114582 -0.108559 -1 -255 -1
0.110357 0.121175 -0.012336 71 239 -57
0.000347 -0.115435 -0.233344 -1 -255 -3
-0.161629 -0.046800 -0.438932 -143 137 -161
-0.154328 -0.005345 0.441150 -187 127 119
-0.078496 0.075669 0.428690 -13 255 1
-0.121850 0.121141 0.100259 -115 227 15
0.018436 -0.118121 -0.498434 21 101 -233
0.042606 -0.109762 0.482598 3 -151 207
-0.112270 0.127249 0.048412 -63 247 1
0.122051 0.042618 0.373918 157 189 67
0.001990 -0.114454 -0.293566 -1 -255 -3
0.190117 -0.106427 0.374294 223 -99 77
-0.143295 -0.065821 0.198893 -241 -63 57
-0.136257 -0.036383 0.263455 -241 -63 57
0.183880 0.020721 -0.243059 131 219 -3
-0.026659 0.109643 0.216554 -3 243 77
0.187116 -0.086892 0.089180 255 5 -7
0.006193 -0.114565 0.117612 -3 -255 -1
0.132480 -0.062383 0.333320 247 -15 59
-0.061542 0.058920 0.370747 -21 249 47
-0.150489 -0.038042 -0.335356 9 -141 213
0.008613 -0.029787 -0.468531 21 69 -245
-0.121460 0.100981 0.209084 -187 169 43
-0.190926 -0.023483 0.000320 -255 -5 -1
0.112825 -0.078487 -0.298992 255 -3 3
0.166414 -0.004798 0.229350 7 -225 119
-0.203082 -0.068874 0.348948 3 -41 -251
0.162039 0.030057 0.346148 67 243 39
0.129682 -0.098713 0.265819 235 -97 -1
-0.164716 0.042820 -0.104632 -247 57 31
0.146434 0.059962 -0.106192 99 207 -113
-0.145111 0.024281 -0.334388 -3 253 -35
0.201972 -0.106417 0.177640 -3 15 255
-0.141873 -0.004543 0.290954 -1 -243 -79
-0.008020 0.135480 0.036767 -5 255 -1
-0.110995 0.053958 0.359680 215 131 33
0.024325 0.019711 0.465716 11 27 253
-0.170700 0.030143 -0.187519 -105 233 1
0.099713 0.045139 0.396150 65 229 93
0.176328 0.008521 -0.342898 213 133 -45
0.039032 -0.117693 -0.128360 -243 -77 1
0.191623 -0.037180 0.335113 11 -157 -201
0.190426 -0.022468 -0.163857 255 -5 19
0.023988 0.035911 -0.260100 7 251 -45
0.031751 -0.114826 -0.011916 -3 -255 -1
-0.155470 -0.121096 0.415526 -85 -231 69
-0.188187 -0.073419 0.067235 -253 -23 -1
0.074438 0.039046 -0.229353 19 249 -47
-0.021569 0.042613 0.480035 -9 -83 241
0.150973 -0.064873 -0.444594 235 3 -97
0.060739 0.075188 0.468527 1 253 -31
-0.011733 0.077298 0.446413 -5 255 3
-0.127538 0.039319 -0.193376 -25 251 -35
-0.190619 -0.123158 0.157433 151 -203 33
-0.137378 0.046128 0.323356 -185 169 49
0.174774 0.027104 -0.229578 153 205 -11
-0.145156 -0.115915 0.148503 3 -255 -1
-0.114529 -0.081876 -0.321413 -255 1 -3
-0.040152 -0.123792 0.167423 -213 43 -133
0.020988 -0.010486 0.486007 11 155 203
-0.186919 -0.071627 -0.120974 -253 -25 -1
-0.121691 -0.001192 -0.394263 31 199 -157
-0.062564 -0.113515 -0.335944 -1 -255 -3
-0.052373 0.048022 -0.176296 -23 245 -69
-0.109525 -0.114521 -0.106519 -1 -255 -1
-0.192194 -0.041219 0.387613 -241 -7 85
0.068790 0.033510 -0.264638 17 251 -47
0.198549 -0.113846 0.165150 241 -45 -71
0.185543 0.001766 -0.320512 205 143 -55
-0.181445 -0.003226 -0.242997 -1 -251 -45
-0.064156 -0.106149 0.472607 9 -227 -113
0.075129 0.026796 -0.294736 19 247 -57
-0.046919 0.131397 0.103563 -13 255 19
0.075957 -0.102407 0.485470 19 -129 219
0.034565 -0.025529 0.495519 11 119 225
-0.198981 -0.038066 0.366513 -243 15 75
0.148117 0.062932 0.398290 199 159 7
-0.079578 0.131183 0.013869 -33 253 -17
-0.042573 -0.006022 -0.419767 -25 237 -89
0.113295 -0.109986 0.273293 -1 -255 -5
-0.173627 -0.040411 0.337216 -1 -155 -203
0.120745 -0.014477 -0.218362 7 -233 -103
0.137102 -0.116815 0.160892 -255 1 -5
-0.167114 -0.099766 -0.431167 -191 59 -159
0.109157 -0.120560 -0.453151 -11 -253 19
0.169781 0.018102 -0.328605 151 201 -43
0.090065 -0.089261 -0.311295 1 -189 171
0.056726 0.033456 -0.268340 17 251 -47
-0.122015 -0.122187 -0.450155 11 -255 9
-0.151840 -0.001374 -0.389914 -65 191 -157
0.112594 -0.040811 -0.221999 255 -3 -5
0.143548 0.053473 0.430768 -193 -165 -29
0.045175 -0.002665 0.479006 17 149 207
-0.067715 -0.015163 -0.433608 -33 231 -105
0.189293 -0.036677 -0.143024 255 -15 -1
0.139269 0.054878 0.268813 225 119 15
-0.122358 -0.095544 0.392971 -9 -241 85
-0.044753 -0.110144 0.267495 -1 -255 -5
-0.040643 -0.103508 0.371367 -1 -243 81
-0.025146 0.135243 0.046770 -5 255 -1
-0.073709 -0.120728 -0.465920 7 -255 19
-0.080314 -0.114791 0.039187 1 -255 -1
-0.114760 0.010901 -0.341475 133 217 -21
0.143615 -0.122650 -0.385686 -11 -255 -9
0.127731 -0.114855 -0.069795 -1 -255 -1
-0.102962 -0.094650 0.396034 -9 -241 85
0.056501 0.046442 0.478421 23 -21 253
-0.067941 -0.119048 -0.445357 3 -255 15
-0.032848 -0.105754 0.427451 -1 -241 85
-0.014989 -0.114291 -0.134152 1 -255 -1
0.114839 0.065978 0.433664 -21 -251 -43
0.185635 -0.091206 -0.052628 253 -33 -3
0.127665 -0.062862 0.484506 91 -63 231
-0.143862 0.089785 -0.035978 -247 31 59
0.203658 -0.037491 0.179580 239 31 -81
0.147092 -0.115009 -0.032480 1 -255 -1
-0.006195 -0.119631 -0.395124 1 -255 -11
0.137208 -0.116096 0.101307 -3 -255 -1
0.199489 -0.025356 0.325166 11 -185 -175
0.077180 0.132753 0.050170 33 253 -1
0.054337 -0.114659 -0.159391 -1 -255 -1
0.093788 -0.114961 -0.045291 1 -255 -1
0.014532 0.122462 0.167396 3 249 53
0.187041 -0.073642 -0.099434 253 -25 -1
-0.190363 -0.070334 0.102107 -255 -11 -13
0.061241 -0.114743 -0.120504 -1 -255 -1
-0.133263 0.024392 0.408515 -89 227 75
-0.135387 -0.035964 -0.446482 -103 161 -169
0.189775 -0.068709 0.117841 253 -5 -23
0.024729 -0.119729 -0.407401 -3 -255 -11
-0.114598 0.036205 -0.225874 -25 251 -35
0.041143 -0.118157 0.162335 199 63 -145
-0.178690 0.017451 0.359594 -185 163 67
-0.202528 -0.038069 0.170900 -243 5 -79
0.038767 0.006851 -0.384197 9 245 -71
-0.067284 -0.110625 0.337395 -1 -255 -5
-0.178479 -0.027736 0.197571 -7 -151 205
-0.195695 -0.087317 0.143804 -249 5 -59
0.191431 -0.098468 -0.351490 251 7 -45
0.004389 -0.114169 0.141250 -3 -255 -1
-0.196462 -0.012715 0.311622 -1 -203 -155
-0.063249 -0.102094 0.375649 -1 -243 81
0.188698 0.008784 -0.013507 239 89 -1
-0.018337 -0.111086 0.349884 -1 -243 81
-0.028115 -0.118543 -0.428606 1 -255 -13
0.190021 -0.045406 -0.022052 255 -15 -1
