ply
format ascii 1.0
element vertex 1211
property float x
property float y
property float z
property uchar red
property uchar green
property uchar blue
end_header
-0.069107 -0.113234 -0.373953 11 -255 9
0.038482 0.038945 0.396011 -1 253 39
0.071051 -0.031738 -0.467665 23 219 -129
0.060496 -0.108531 0.255895 -5 -255 3
0.127258 0.014983 -0.365500 -75 239 -43
-0.201787 -0.011886 0.123691 -237 47 -81
0.007728 -0.105689 0.414284 -3 -255 3
0.201384 0.001973 -0.058649 255 -17 5
0.194195 -0.103206 0.067628 219 -129 11
-0.178587 -0.109468 -0.040163 -1 -255 -1
0.198771 -0.073436 0.179366 255 -7 19
0.127421 -0.026170 -0.432104 73 175 -171
-0.150026 0.060193 0.083215 -233 103 -1
0.115595 0.065691 -0.134163 99 209 -109
0.052830 -0.106851 0.410865 -3 -255 3
0.152238 -0.080777 0.408411 -1 29 -253
0.054903 -0.111690 -0.294834 5 -255 3
0.165296 0.041790 -0.070107 31 253 -9
-0.197459 -0.010012 0.386450 -1 -173 -187
-0.080743 -0.044510 -0.481689 -61 201 -145
-0.129431 -0.095230 -0.275435 -255 -1 -1
0.027455 -0.045860 -0.492842 -1 207 -149
0.033091 -0.110259 -0.058318 3 -255 -1
-0.208490 0.009449 0.236563 -255 -11 7
-0.154610 -0.114500 -0.338476 -1 -255 -3
-0.112109 -0.068991 0.475504 -63 -95 227
-0.015862 -0.110235 -0.018537 5 -255 3
-0.124054 0.037976 -0.171397 -77 203 -135
0.193245 0.059340 -0.120504 199 -9 -159
0.136511 0.083266 -0.060026 177 183 -11
0.128975 -0.064559 0.277360 255 -1 -1
0.098361 -0.114046 -0.392204 1 -255 -1
0.015355 0.032215 -0.293088 -1 251 -45
-0.199869 0.014630 0.292398 -1 -251 45
-0.063488 -0.065450 0.485866 -31 -83 239
-0.021775 0.109834 -0.038301 -1 253 -23
0.196823 -0.043060 -0.100407 239 -89 11
-0.200763 0.019176 -0.194441 -213 141 1
0.189265 -0.103933 0.166723 219 -129 11
-0.050289 0.051728 0.395509 25 21 -253
0.189093 0.047746 0.175940 109 231 1
0.100604 -0.013352 -0.425164 25 209 -145
-0.127908 0.065164 0.197674 -181 175 33
0.210405 0.025267 0.141796 255 -1 -5
0.083312 0.084776 0.200347 -13 255 15
0.206519 -0.055643 0.087017 255 -7 19
0.142266 -0.109487 -0.021850 -1 -255 -1
-0.133699 0.087981 0.070785 -201 157 -1
0.210757 0.032282 0.206427 255 -19 7
0.204469 -0.077299 0.011754 251 -39 11
0.129460 -0.009096 -0.253802 255 -1 -1
0.013518 -0.044364 -0.497125 -1 255 -1
0.129651 -0.110685 0.202018 -1 -255 -1
0.116049 0.053339 -0.152162 55 205 -143
0.068765 -0.015446 -0.435929 43 227 -109
0.129196 -0.038904 0.382051 255 -1 -1
0.205760 0.010769 -0.285345 241 79 -19
-0.106855 -0.114461 -0.380604 -1 -255 -1
-0.177071 0.042965 -0.000934 -31 253 -9
-0.006775 0.038703 -0.219136 -1 255 -3
0.160097 -0.112613 -0.430504 29 -251 -29
0.054911 -0.110065 0.095248 -5 -255 3
0.140218 -0.109019 -0.127874 -1 -255 -1
-0.207519 0.005082 0.274062 -255 -1 -1
0.071386 -0.111964 -0.484494 33 -173 -185
-0.049357 0.038840 -0.198726 -1 255 -3
0.065516 -0.087085 0.465035 23 -197 159
0.082371 0.083708 0.213790 -13 253 25
0.080597 -0.079638 0.471580 25 -197 161
-0.199961 0.015076 0.071374 -255 -17 5
-0.199764 0.040398 0.259637 -109 231 7
0.196220 0.059873 -0.112765 235 63 -75
-0.174219 -0.066566 0.447636 -157 -31 199
-0.193556 -0.034746 0.034338 -239 -89 11
0.120403 0.020153 -0.321582 -45 249 -33
0.128880 -0.067131 0.341331 255 -1 -1
0.025488 -0.107697 0.323247 -5 -255 3
0.187576 0.027356 0.378232 211 127 67
-0.077969 0.075776 -0.129411 -27 225 -117
0.175684 -0.035063 0.241585 -1 -81 241
-0.182322 -0.113984 -0.358767 -1 -255 -3
0.211388 0.031860 0.174457 255 -1 -5
-0.021190 0.046153 0.335459 -1 253 25
-0.174479 0.043875 0.013348 -31 253 -9
-0.054230 0.105957 0.094037 -1 243 79
0.037693 -0.109484 0.142331 -5 -255 3
-0.047151 0.083882 -0.118841 -11 227 -113
-0.172931 0.047402 0.088516 -35 249 -41
-0.194945 -0.109429 -0.031389 -1 -255 -1
0.184468 0.042890 0.032411 83 241 -9
-0.160381 -0.110303 0.200198 -1 -255 -1
-0.099268 0.036143 -0.232198 -19 253 -17
0.065267 -0.110266 0.082527 -5 -255 3
0.046853 -0.030590 -0.469018 23 219 -129
-0.058592 -0.109861 -0.133828 -5 -255 3
0.207155 0.035328 0.245055 249 45 23
-0.129385 -0.097071 0.283794 -255 -1 -1
-0.145451 0.006495 -0.276423 -1 -247 61
-0.059213 -0.113891 -0.405762 11 -255 9
0.002860 0.107987 0.089402 3 245 73
-0.180574 0.041994 0.343489 -119 219 57
-0.078435 0.013111 -0.366189 -45 233 -93
0.091162 -0.114364 -0.402170 1 -255 -1
0.047406 -0.109088 -0.490727 45 -1 -251
-0.100630 -0.109198 -0.139215 -3 -255 -1
-0.188313 -0.064653 -0.030503 -251 -39 17
-0.081485 -0.109216 0.221152 5 -255 3
0.110705 -0.094924 0.444403 51 -215 129
0.188375 -0.095551 0.232533 235 -99 -17
-0.066050 0.030950 -0.297856 -11 251 -45
0.129334 -0.079183 0.341100 255 -1 -1
-0.061447 -0.108749 0.256615 5 -255 3
-0.203195 -0.084777 -0.107641 -239 89 -9
0.136551 -0.110343 0.225463 -1 -255 -1
0.206232 -0.055173 0.089778 255 -7 19
0.152520 0.053576 0.023515 233 103 -1
0.089492 -0.107210 0.416130 -3 -255 3
0.117737 0.000532 -0.402451 -9 223 -123
0.042173 -0.107284 0.382137 -3 -255 3
0.000974 -0.104358 -0.479705 -1 255 -21
0.156138 -0.110040 0.057214 -1 -255 -1
0.110551 0.053934 0.432268 11 255 -13
-0.101757 -0.109207 -0.138418 -3 -255 -1
0.124073 0.025539 0.444338 85 159 181
0.138504 0.046747 0.382432 55 243 55
0.128869 0.037313 -0.178514 11 255 -15
0.046059 0.036278 -0.261104 7 253 -31
0.005593 0.059209 -0.164538 -1 215 -137
0.137566 0.036774 -0.167838 17 255 5
-0.108331 0.106063 -0.033775 -45 251 -19
-0.209092 -0.023629 -0.158476 -255 -15 -7
0.124772 -0.109559 0.285411 -3 -255 3
-0.108572 0.073070 0.247895 -155 199 43
-0.036628 -0.109716 0.079912 5 -255 3
-0.020835 -0.056875 0.497548 -15 -1 255
-0.124031 -0.095323 0.435533 -71 -215 119
0.109109 0.095506 -0.079423 79 221 -97
-0.171286 0.032992 0.397057 -93 229 61
-0.173132 -0.105109 -0.423121 -195 127 -103
-0.000607 -0.111063 -0.164692 -5 -255 3
-0.063537 0.075613 0.277619 25 253 27
-0.010859 0.052817 0.230921 7 255 5
0.129442 -0.112811 -0.294805 255 -1 -1
-0.209826 0.022420 0.199973 -255 -21 3
-0.168857 -0.107544 0.409647 -1 -255 19
0.018306 -0.110234 -0.116345 5 -255 3
-0.146221 0.050117 0.362462 -55 243 55
0.025519 -0.090375 -0.468110 -1 -7 -255
0.183079 0.041014 -0.026822 31 253 -9
-0.014425 -0.109115 0.097471 5 -255 3
-0.025283 0.032201 -0.295956 -1 251 -45
-0.011021 -0.037222 -0.480636 -1 207 -149
0.203149 0.015045 -0.059008 251 -39 7
-0.112135 -0.043591 -0.467619 -61 201 -145
-0.176609 -0.050995 0.446148 -215 -3 137
0.205522 -0.059776 0.092789 255 -7 19
-0.166673 -0.110027 0.173544 -1 -255 -1
-0.124495 0.065989 -0.125784 -99 209 -109
-0.093017 -0.011010 0.489364 -13 227 117
0.088010 0.000100 -0.394626 37 235 -93
-0.013065 0.107935 -0.058758 -1 253 -23
-0.090629 -0.111209 -0.284839 11 -255 9
0.082944 -0.111491 -0.293274 -11 -255 9
0.023843 0.041435 0.376885 -1 253 39
-0.192039 -0.100019 -0.382777 -247 -5 -61
0.104376 -0.094209 0.446449 47 -211 137
0.162703 -0.000039 0.443891 171 103 159
0.136879 0.082499 -0.069288 177 183 -9
-0.189553 -0.008252 -0.354398 -231 75 -81
-0.177462 0.051745 0.139464 -67 245 -5
-0.193108 -0.033586 -0.366935 -225 97 -71
0.136302 -0.032660 0.478238 129 -15 219
0.043785 -0.011989 0.495946 9 205 151
-0.189141 -0.069182 0.408166 -1 -13 -255
0.079909 -0.113964 -0.427453 1 -255 -1
-0.200270 -0.012081 -0.053999 -255 -19 5
-0.079953 -0.110979 -0.287536 -5 -255 3
0.068104 -0.109261 0.190688 -5 -255 3
-0.144255 -0.009967 -0.407523 -85 173 -167
-0.201158 0.000778 -0.046244 -255 -17 5
0.058441 -0.034477 -0.473133 27 205 -149
0.136552 0.036586 -0.186182 11 255 -15
0.202288 0.020579 -0.006426 251 -39 7
0.021479 0.014876 0.460971 -1 181 179
0.180601 0.048297 0.300062 111 229 7
0.057977 0.055008 0.410467 11 255 -13
0.196288 -0.021908 0.073754 239 -89 11
-0.182566 0.050776 0.187077 -111 229 7
0.101842 0.045304 0.375081 -21 249 55
-0.063515 -0.110579 -0.232251 -5 -255 3
-0.198577 -0.036582 0.103191 -85 135 -199
0.055796 -0.083506 0.470768 23 -197 159
0.088054 0.105661 0.106697 -19 245 67
-0.010486 -0.106826 0.330976 5 -255 3
-0.086070 0.086741 0.172852 5 255 13
0.039833 -0.109349 0.119071 -5 -255 3
-0.129059 -0.061912 -0.289954 -255 -1 -1
-0.137678 0.082993 0.098974 -201 157 -1
0.018585 0.038710 -0.217751 -1 255 -3
-0.192730 0.046168 0.117998 -93 237 -5
-0.016816 -0.109820 0.029240 5 -255 3
-0.208872 0.027092 0.082774 -5 -255 -17
-0.185952 0.030113 -0.158547 -87 239 -19
0.087085 -0.109608 -0.132892 3 -255 -1
-0.042090 -0.107623 0.347656 3 -255 3
0.042597 -0.111917 -0.358189 5 -255 3
-0.200275 0.017369 0.066642 -255 -17 5
0.146870 -0.114443 -0.415471 1 -255 -1
-0.199222 -0.031923 -0.068847 -255 -19 5
0.083077 -0.109869 0.175992 -5 -255 3
0.129062 -0.041396 -0.288594 255 -1 -1
0.079469 0.019426 0.456026 7 181 179
-0.057956 0.076945 0.167242 113 229 -11
-0.204784 0.032539 0.017029 -201 155 -5
0.080234 -0.042396 -0.480196 61 201 -145
-0.002251 0.057170 -0.167297 -1 215 -137
0.175917 0.035044 0.381667 119 219 57
-0.159179 -0.113657 -0.415289 -3 -255 -1
-0.141462 -0.109541 -0.019780 -1 -255 -1
-0.139148 -0.103546 0.422222 1 -191 169
-0.008341 0.068269 -0.150369 -1 215 -137
-0.054329 -0.110537 -0.199007 -5 -255 3
0.196270 -0.025848 0.042810 239 -89 11
0.204976 0.018322 -0.152541 203 147 -41
0.003520 -0.110414 -0.071949 -5 -255 3
-0.185456 -0.072421 0.427176 -217 -37 129
-0.153672 -0.109443 -0.093126 -1 -255 -1
-0.051249 0.112192 -0.012586 -1 253 -23
-0.083320 -0.105086 0.437430 -51 -215 129
-0.082651 -0.006515 0.481105 -27 215 135
0.163725 -0.109801 0.077191 -1 -255 -1
0.166224 -0.114628 -0.387743 3 -255 -1
-0.056813 -0.020418 0.496785 -31 -15 253
0.074692 -0.110431 -0.232018 5 -255 3
-0.189335 -0.104432 0.160105 -219 -129 11
0.133513 -0.110089 0.182581 -1 -255 -1
-0.129369 -0.078570 -0.241329 -255 -1 -1
0.035862 -0.113883 -0.425193 -11 -255 9
0.171441 -0.020839 0.396916 -1 -173 -187
0.074186 -0.107224 0.362742 -3 -255 3
0.208080 -0.035925 -0.169825 253 -23 -23
0.092227 0.084771 0.205268 -13 255 15
0.074723 0.058250 0.352099 65 233 79
-0.011316 0.008380 0.469463 1 211 143
-0.169643 0.018286 -0.355143 -87 237 -41
-0.132282 -0.109175 -0.075997 -1 -255 -1
0.001247 -0.105970 0.392143 -3 -255 3
-0.068915 0.019950 -0.353427 -27 249 -45
0.171369 0.029119 -0.217262 69 245 -1
0.024093 -0.107312 0.312760 -5 -255 3
0.201092 -0.109001 -0.334873 247 -35 -51
0.067424 0.075486 0.279199 -25 253 27
-0.209552 0.008783 0.162685 -253 -27 3
0.096464 -0.113780 -0.415231 1 -255 -1
-0.191214 0.006003 -0.279154 -1 -247 61
-0.065251 0.037005 -0.246490 -3 255 -15
0.150430 -0.108911 -0.170215 -1 -255 -1
0.129320 -0.057463 -0.301397 255 -1 -1
0.142813 0.017728 -0.366991 -49 249 -33
-0.059634 -0.053607 0.494640 -89 67 229
-0.163829 0.019951 -0.354022 -37 251 -23
0.041279 0.101522 -0.078765 -1 241 -83
0.088746 -0.109687 -0.205670 5 -255 3
-0.087205 0.064046 0.326660 -65 233 79
-0.098291 -0.109913 -0.001213 -3 -255 -1
-0.205901 -0.049536 0.093038 -255 -7 19
0.105903 -0.070529 0.477104 51 -197 155
0.003368 -0.111136 -0.182476 5 -255 3
-0.084924 -0.069076 0.481713 -31 -83 239
-0.093478 -0.111890 -0.311257 11 -255 9
-0.140981 -0.110024 0.111821 -1 -255 -1
-0.135698 0.080256 -0.080437 -187 165 -55
-0.191401 -0.054860 -0.049787 -251 -45 17
-0.169098 0.033948 0.396936 -93 229 61
-0.198602 -0.098133 0.040027 -217 -133 11
0.058873 0.096488 -0.093060 9 239 -89
0.170539 0.029119 -0.222966 69 245 -1
0.112067 0.058479 0.301187 -47 251 13
0.067237 0.063279 0.338796 -11 247 67
-0.091730 0.078449 0.254165 -67 243 35
0.167628 -0.053184 -0.431799 179 -1 -181
-0.024809 -0.044986 -0.498596 -17 -1 -255
0.091573 -0.110477 0.109528 3 -255 -1
0.119066 0.013725 -0.356993 -75 239 -43
0.154327 0.057573 0.274888 51 249 7
-0.170478 -0.094489 0.406812 -1 29 -253
-0.071676 -0.010604 -0.424888 -47 227 -107
-0.148055 0.064177 0.096061 -233 103 -1
-0.067101 -0.113892 -0.424903 -1 -255 -1
-0.001692 -0.106808 0.366175 5 -255 3
-0.133983 0.000581 -0.212484 -1 -221 -125
0.019589 0.100682 0.126939 1 255 -1
-0.186453 -0.016846 -0.372266 -231 75 -81
-0.138806 0.040910 0.405695 -31 245 63
-0.205163 -0.037603 -0.330356 -249 11 -57
0.120699 0.033062 -0.229894 33 253 -17
0.006811 0.032553 -0.290848 -1 253 -31
0.191249 -0.003568 -0.346254 231 73 -81
0.204842 0.012604 -0.211015 251 47 -1
-0.081666 -0.108672 0.289407 3 -255 3
0.146945 0.066419 -0.073074 233 103 -1
-0.199216 -0.097204 0.035626 -217 -133 11
0.185691 -0.011429 0.429789 169 155 111
-0.140480 -0.037182 -0.444511 -83 195 -141
0.208960 0.009433 0.195561 253 -27 3
-0.048630 -0.110412 -0.209391 -5 -255 3
0.190227 -0.051573 -0.023217 239 -89 11
0.143771 -0.096678 -0.452466 129 -5 -221
0.119601 0.100752 -0.049239 177 183 -11
-0.067068 -0.113780 -0.447363 -1 -255 -1
0.194130 -0.073096 0.413031 217 -37 129
0.052318 0.022697 -0.343724 9 251 -45
0.104096 -0.110376 0.215499 -5 -255 3
-0.019085 -0.113032 -0.372177 -5 -255 3
0.157189 0.032381 -0.212711 39 251 -17
-0.107350 -0.002379 0.470764 -13 227 117
-0.072496 0.111229 -0.017574 -11 253 -23
-0.109216 0.108773 0.006845 -43 251 -19
-0.066429 0.100312 -0.081364 -9 239 -89
0.094541 0.071872 -0.131252 41 221 -121
-0.104812 -0.113172 -0.322456 11 -255 9
0.017888 0.019156 -0.365771 -1 237 -93
-0.117326 -0.113607 -0.453296 -17 -253 -31
0.192769 -0.109506 0.013458 -1 -255 -1
-0.114082 0.051210 0.350636 17 249 49
-0.195832 0.022235 -0.279081 -153 205 -7
0.104654 0.038090 -0.182516 9 255 -11
-0.002874 -0.108908 0.083040 5 -255 3
0.041924 0.038856 -0.202700 -1 255 -3
0.122467 -0.109263 -0.197884 -11 -255 9
-0.157474 -0.108873 -0.158569 -1 -255 -1
-0.169585 -0.109822 0.132889 -1 -255 -1
-0.128907 -0.039268 0.319036 -255 -1 -1
-0.014551 0.058709 0.130423 35 249 47
-0.129005 -0.108698 -0.291458 -255 -1 -1
0.199713 0.042395 0.104494 83 239 -31
0.201821 -0.051970 0.189682 247 -59 -1
-0.108701 -0.109636 0.252447 5 -255 3
-0.108372 0.052276 0.413619 -1 255 -11
-0.050188 0.108073 0.087876 -1 243 79
-0.150512 0.058560 -0.090077 -233 103 -1
-0.097316 -0.113881 -0.459740 -1 -255 -1
0.079677 -0.114222 -0.384419 -11 -255 9
-0.113633 -0.109129 0.289643 3 -255 3
0.196532 0.028387 0.347201 211 127 67
0.129201 -0.051616 0.398194 255 -1 -1
0.010096 0.059410 -0.163965 -1 215 -137
-0.121532 -0.090597 -0.438960 -131 -5 -219
0.207280 0.024698 -0.089555 207 149 -5
-0.199033 -0.021117 -0.013395 -255 -19 5
-0.201589 -0.049706 0.405747 -249 -49 17
-0.136588 0.006326 0.364602 -1 -233 -103
0.207682 0.000478 -0.291490 245 57 -45
0.186579 0.037555 -0.101342 87 239 -9
0.108342 -0.086539 0.456396 51 -197 155
-0.034853 -0.110388 -0.022078 -3 -255 -1
-0.008634 -0.107505 0.242625 5 -255 3
-0.204747 -0.070863 0.043256 -239 -87 7
0.090700 0.104422 0.121637 -19 255 3
0.176972 -0.096114 -0.416006 225 -5 -119
-0.133913 -0.109546 0.031139 -1 -255 -1
0.183526 0.039738 -0.060464 31 253 -9
0.127205 -0.111466 -0.246579 -11 -255 9
0.168882 0.045353 0.041449 31 253 -9
0.141746 -0.023006 -0.186193 -1 -169 -191
-0.092630 -0.109548 0.227746 5 -255 3
-0.087730 -0.109286 0.244816 5 -255 3
-0.006445 0.048621 0.308071 -1 253 25
-0.083728 -0.110167 0.144453 5 -255 3
0.013672 0.058353 0.446204 -1 255 -11
-0.199192 0.019111 0.357636 -211 127 67
0.012737 -0.110627 -0.135550 5 -255 3
0.203798 -0.004884 0.132172 237 47 -81
0.129315 -0.025404 0.398218 255 -1 -1
-0.181423 -0.109394 -0.058245 -1 -255 -1
-0.135391 -0.010207 0.473198 -63 223 107
0.008824 -0.001582 0.483027 -1 211 143
-0.080549 -0.109616 -0.177370 -5 -255 3
0.159912 -0.029892 0.461949 175 9 185
0.119852 -0.110226 0.167254 3 -255 -1
-0.138181 -0.109092 -0.115989 -1 -255 -1
-0.186129 0.049217 0.157972 -93 237 -5
-0.065566 -0.055422 0.492458 -67 87 229
-0.197756 -0.076031 0.193349 -255 -7 19
-0.201926 -0.061147 -0.334661 -1 -29 253
0.087003 -0.109491 0.238907 -5 -255 3
0.101146 -0.110285 0.169253 -5 -255 3
-0.191151 -0.031308 -0.372878 -231 75 -81
0.201207 -0.013778 -0.093875 255 -19 5
-0.112054 0.082902 0.162346 -107 229 25
-0.116243 0.041015 0.400333 -7 247 65
-0.184593 -0.074711 -0.001770 -251 -39 17
-0.013449 0.044053 0.355820 -1 253 25
-0.128851 -0.006790 0.319034 -255 -1 -1
-0.195228 -0.018958 -0.347669 -231 75 -81
-0.032246 0.054988 0.208233 31 253 15
0.143099 -0.114563 -0.370393 3 -255 -1
0.078034 0.107613 -0.054039 11 253 -23
0.066900 -0.112772 -0.350924 -11 -255 9
0.118313 0.055280 0.333403 -17 249 49
-0.167626 0.030017 -0.209260 -69 245 -1
0.058942 -0.110588 -0.234584 5 -255 3
-0.123102 0.078414 0.154961 -181 175 33
0.114536 0.023928 -0.298319 43 247 -43
0.133163 0.056608 0.330627 5 251 41
-0.159505 0.034167 -0.163019 -31 251 -39
0.016815 -0.020681 0.499611 15 -15 255
0.165462 -0.026344 -0.183094 -1 -79 -243
0.132488 -0.094900 0.230131 -1 -3 255
-0.178391 0.024143 -0.281979 -37 251 -23
0.066038 -0.020826 0.495925 31 -15 253
-0.039091 -0.111334 -0.249802 -5 -255 3
-0.013045 0.049352 0.305870 15 253 33
0.017853 0.079011 -0.129319 -1 229 -113
0.070092 -0.109949 -0.179946 5 -255 3
0.065651 -0.002227 0.479028 43 205 145
0.190353 -0.070244 -0.069310 251 -39 17
-0.186885 0.029617 -0.165106 -87 239 -19
0.005483 0.054022 0.172169 -7 255 5
-0.058590 0.002639 0.474137 -43 205 145
-0.103044 0.077233 0.233488 -87 237 33
0.060281 0.052636 -0.171904 35 211 -139
0.186971 0.048220 -0.121980 95 -235 -35
0.152625 0.053960 0.085845 233 103 -1
0.186506 -0.065815 -0.400178 225 -5 -119
0.055995 -0.104657 -0.482136 3 255 -21
0.092115 0.008055 0.455720 43 205 145
0.105167 -0.109190 -0.153595 3 -255 -1
0.035471 -0.106733 0.419155 -3 -255 3
0.196162 -0.087048 0.169115 251 -49 9
0.196063 0.037357 0.330429 119 219 57
0.131440 0.061834 0.239060 -135 215 -7
-0.163017 -0.095571 0.435753 -57 -177 173
-0.135463 -0.014852 0.479861 -129 -15 219
0.201406 0.013885 -0.012970 251 -39 7
0.124318 0.073902 0.173138 181 175 33
0.121959 0.027883 -0.265566 43 247 -43
0.208646 0.009749 0.210219 253 -27 3
0.023370 0.113243 0.000723 -1 253 -23
0.204057 0.013618 -0.214692 251 47 -1
-0.201515 -0.013440 -0.123537 -255 -19 5
-0.043848 0.023170 -0.342986 -9 251 -45
0.060533 -0.110399 0.049902 3 -255 -1
-0.163610 -0.066617 -0.435444 -179 -5 -181
-0.112070 0.010643 -0.363034 75 239 -43
-0.059787 0.029202 0.445981 -7 181 179
-0.210182 -0.027703 -0.137163 -255 -5 -19
-0.047008 0.083027 -0.121268 -11 227 -113
-0.108241 0.105255 -0.044611 -45 251 -19
-0.177848 -0.109915 0.099411 -1 -255 -1
0.061750 0.008240 0.464727 43 205 145
-0.157308 0.058319 0.228755 -73 245 3
-0.017887 -0.114525 -0.476183 -1 -255 -1
-0.141810 -0.056216 0.235155 -1 -49 251
-0.182674 0.025741 -0.261402 -39 251 -17
0.091726 -0.113895 -0.423400 1 -255 -1
0.112425 0.056087 0.323881 -17 249 49
-0.125389 0.034017 -0.220680 -23 253 -29
-0.191717 -0.046460 -0.021200 -239 -89 11
0.104719 -0.108916 0.287000 -3 -255 3
0.205146 -0.016627 0.235741 253 -23 15
0.025691 -0.110516 -0.017972 -5 -255 3
-0.076779 -0.058132 0.494415 -155 -203 -1
0.089144 0.112043 0.060562 31 253 5
-0.026326 0.000482 -0.411382 -1 237 -93
-0.011454 -0.034864 -0.477009 -1 207 -149
0.095540 -0.109961 0.199378 -5 -255 3
0.198766 -0.060651 0.407867 217 -37 129
-0.162937 -0.110370 0.176421 -1 -255 -1
-0.031005 0.057841 0.150754 31 253 13
0.210635 -0.013049 -0.135550 255 -5 -19
0.200225 -0.002038 0.010051 255 -17 5
-0.074800 -0.108083 0.314913 3 -255 3
0.041445 0.113110 -0.000881 -1 253 -23
0.144020 0.072985 -0.059738 233 103 -1
0.082107 -0.109842 0.218768 -5 -255 3
-0.200793 -0.055473 0.182987 -249 -59 -1
0.022637 -0.034443 0.494618 15 -15 255
-0.161616 0.042567 -0.062005 -31 253 -9
0.110152 -0.109629 -0.215952 5 -255 3
0.139874 -0.109613 0.056278 -1 -255 -1
-0.202480 0.041329 0.193281 -109 231 7
0.158998 -0.108989 -0.149531 -1 -255 -1
0.071082 -0.005511 -0.414485 47 227 -107
-0.077229 0.053493 0.408542 -17 253 -29
-0.140339 -0.020118 -0.188725 -1 -169 -191
0.201883 -0.049977 0.162558 247 -59 -1
-0.145518 -0.042309 0.472264 -129 -15 219
0.196914 -0.082588 -0.364585 247 -5 -61
0.082589 -0.106368 0.429369 1 -255 13
0.129161 -0.109654 0.038793 -1 -255 -1
0.100872 -0.114095 -0.429664 1 -255 -1
0.119090 -0.107757 0.396696 -3 -255 3
-0.178921 0.032821 0.382721 -119 219 57
-0.207449 -0.002132 -0.294988 -245 57 -45
-0.180359 -0.030206 -0.392579 -217 69 -115
-0.201147 0.003784 -0.035310 -255 -17 5
-0.127934 0.098224 0.086772 -141 213 -1
0.076162 -0.107780 0.361106 -3 -255 3
-0.191952 -0.108997 -0.385933 -251 -1 -43
-0.129890 -0.109473 -0.016209 -1 -255 -1
0.026708 -0.007282 -0.427903 -1 229 -111
-0.042144 -0.110990 -0.242171 -5 -255 3
0.025331 -0.111302 -0.255952 5 -255 3
-0.160653 0.025720 -0.292543 -37 251 -23
-0.093064 -0.110320 -0.231477 -5 -255 3
-0.105196 0.001947 -0.395030 69 239 -53
0.153636 -0.109020 -0.142891 -1 -255 -1
-0.195864 -0.076585 0.232255 -249 -57 -9
0.121125 -0.086120 0.450063 79 -195 145
0.202301 0.042062 0.122086 109 231 1
0.081743 0.083433 0.219088 -13 253 25
0.168897 0.049133 0.096252 35 249 -41
-0.001981 0.053439 0.191332 7 255 5
-0.058913 0.007500 -0.390798 -41 233 -93
-0.201856 -0.075926 0.079989 -251 -49 9
0.207750 -0.007077 -0.204185 255 1 -1
0.194792 -0.006944 -0.300947 -1 -215 135
0.041717 0.055945 0.405139 11 255 -13
-0.096085 0.108381 0.096772 7 247 59
0.142153 -0.050127 -0.175523 -1 -79 -243
0.168181 -0.002989 -0.205866 -1 -221 -125
0.210177 0.025499 0.040205 -3 -255 9
-0.010558 -0.106549 0.371315 3 -255 3
-0.088984 0.038190 -0.200867 -13 255 -5
-0.121085 0.059438 -0.141020 -77 203 -135
0.132156 0.016606 -0.362064 -45 249 -33
0.008534 -0.060092 -0.499532 17 -1 -255
0.031630 0.009695 -0.387893 -1 237 -93
0.053137 0.061622 -0.159280 27 213 -137
0.156727 -0.048034 0.237238 -1 -81 241
-0.125170 0.083932 0.134722 -227 117 -7
-0.185289 -0.077446 0.426834 -209 -71 129
0.160118 0.056279 0.280109 51 249 7
0.086951 -0.110203 0.019474 3 -255 -1
0.127569 -0.108855 0.354244 -3 -255 3
0.040354 0.110945 -0.025327 -1 253 -23
0.078082 0.112266 0.076836 29 253 21
0.203206 0.038559 0.097453 201 155 -17
0.063415 -0.109736 0.132804 -5 -255 3
0.028570 -0.112064 -0.359004 5 -255 3
-0.156421 0.034486 -0.170294 -65 247 -11
-0.008542 -0.073410 0.487151 -13 -199 161
-0.204890 0.013550 -0.248338 -189 171 1
0.040597 0.059555 0.200930 -229 107 -31
0.205522 -0.095368 -0.133173 251 -45 -7
0.012027 -0.109940 0.013658 -5 -255 3
0.082305 0.042872 0.385679 -15 251 39
-0.117201 0.047517 0.443132 -81 -9 241
0.080035 0.086543 0.169427 -13 255 15
-0.064909 -0.113254 -0.384785 11 -255 9
-0.033514 -0.111589 -0.263848 -5 -255 3
0.149567 0.026907 -0.295630 27 253 -27
-0.004844 0.030565 -0.303918 -1 251 -45
0.169234 0.029393 -0.228210 39 251 -17
0.010827 -0.105540 0.432885 -3 -255 3
0.161913 -0.059070 -0.334541 -1 -29 253
0.131021 0.091245 -0.014057 195 165 -1
-0.148790 -0.088021 0.446770 203 -111 107
-0.189898 0.028524 -0.161074 -87 239 -19
-0.139631 0.080785 0.022309 -201 157 -1
-0.195677 -0.091122 0.149918 -251 -49 9
-0.084818 0.111915 0.002336 -23 253 -19
-0.116341 -0.110316 0.235200 5 -255 3
0.008015 0.035675 -0.270098 -1 253 -31
0.129461 -0.106210 -0.216757 255 -1 -1
0.209107 0.031568 0.225020 249 45 23
0.205448 0.013432 -0.172535 245 67 -23
0.066717 -0.109708 -0.110065 3 -255 -1
-0.081548 -0.089022 0.460619 -25 -197 161
-0.003139 0.000620 -0.410898 -1 237 -93
0.033451 0.023213 -0.345639 -1 251 -45
0.052969 -0.110672 -0.194237 5 -255 3
-0.078196 0.065362 -0.147726 -45 209 -139
0.163134 -0.109132 -0.092204 -1 -255 -1
0.118200 0.016664 -0.338293 -75 239 -43
-0.191721 -0.047880 -0.388742 -249 -1 -59
-0.061586 -0.108290 0.270696 5 -255 3
-0.194135 -0.089301 -0.378083 -247 -5 -61
-0.067946 0.101791 0.106326 -1 243 79
0.015411 0.047194 0.330305 -1 253 25
0.188129 -0.109256 -0.102190 -1 -255 -1
0.193426 -0.052521 -0.078162 251 -39 17
0.092959 -0.000442 -0.393991 37 235 -93
0.209858 0.022697 -0.056206 207 149 -5
0.128927 -0.034580 0.277870 255 -1 -1
0.139515 0.059948 0.299287 39 251 7
0.036615 -0.108595 0.187237 -5 -255 3
0.088837 -0.108498 0.312865 -3 -255 3
-0.068182 -0.113508 -0.457965 -1 -255 -1
-0.191202 -0.095224 0.206027 -237 -93 17
-0.128938 -0.031710 0.256763 -255 -1 -1
0.208524 0.022795 -0.110189 207 149 -5
-0.102247 -0.023046 0.491362 -61 -15 247
-0.189390 -0.057510 0.425289 -215 -23 135
-0.199361 -0.024598 -0.034725 -255 -19 5
0.162333 -0.109044 -0.152098 -1 -255 -1
-0.177056 0.044362 0.039737 -31 253 -9
0.203394 0.030384 0.290772 249 45 23
0.123858 -0.110509 0.217064 -5 -255 3
-0.121008 0.004209 -0.395002 9 223 -123
0.094719 -0.109640 -0.050915 3 -255 -1
0.023777 -0.109941 0.034937 -5 -255 3
0.126583 -0.114379 -0.352747 1 -255 -1
0.077135 0.080493 0.242346 -13 253 25
0.206104 0.009861 -0.227666 229 109 15
0.201162 -0.002310 -0.060530 255 -17 5
0.207716 -0.027357 -0.176783 251 -21 -37
-0.036191 0.056873 0.184031 31 253 15
0.103507 -0.109666 -0.099479 3 -255 -1
0.012708 -0.057612 -0.500140 17 -1 -255
-0.176341 0.044958 0.061761 -31 253 -9
-0.100541 -0.035115 -0.460561 -61 201 -145
-0.200220 0.013530 0.067134 -255 -17 5
0.202674 0.040903 0.120375 235 95 -25
-0.119036 -0.114330 -0.379601 -1 -255 -1
-0.198693 0.042171 0.221949 -109 231 7
-0.024059 0.043388 0.365761 -1 253 25
0.187760 0.020394 -0.307363 87 237 -41
0.151550 -0.112614 -0.442495 29 -251 -29
0.174406 0.006462 -0.276964 -1 -247 61
0.007456 -0.031229 -0.472063 -1 219 -131
0.104656 0.088561 0.147696 -1 -1 255
-0.167080 -0.095399 0.434524 -57 -177 173
0.206942 -0.061203 0.079434 255 -7 19
-0.093009 -0.076031 0.473757 -25 -197 161
-0.068699 0.071757 -0.139543 -23 225 -117
-0.135776 -0.020704 0.479654 -129 -15 219
0.022105 0.065715 -0.154241 -1 215 -137
-0.200783 -0.014983 -0.073130 -255 -19 5
-0.205026 -0.080995 -0.025827 -249 59 -5
-0.202126 0.001731 -0.100691 -253 -39 7
-0.122357 0.101812 0.012370 -189 171 -13
-0.097815 -0.110625 -0.258051 11 -255 9
0.081006 -0.112547 -0.343415 -11 -255 9
0.204610 0.014865 -0.175073 207 145 -23
0.136163 -0.010573 -0.412359 85 173 -167
-0.129382 -0.022762 -0.278785 -255 -1 -1
0.051017 0.114654 0.047877 -1 255 -1
-0.012255 -0.107502 0.293369 5 -255 3
0.118906 0.046524 0.374892 -17 249 49
-0.205005 -0.081700 -0.027881 -249 59 -5
-0.115480 -0.002116 -0.405886 9 223 -123
-0.184825 0.049980 0.187070 -109 231 7
0.113729 -0.109702 -0.218156 -11 -255 9
-0.191675 -0.106044 -0.385708 -219 129 -19
0.065175 0.100507 0.125246 1 255 -1
0.056920 -0.111620 -0.315063 5 -255 3
-0.151360 -0.005022 -0.202499 -1 -221 -125
0.094986 -0.109546 0.229839 -5 -255 3
-0.133809 0.067682 0.133278 -225 119 -11
-0.009403 -0.110420 -0.060372 5 -255 3
0.203318 -0.102177 -0.167343 253 -19 -25
-0.005468 -0.077325 0.482467 -13 -199 161
0.175060 0.051041 0.298939 111 229 7
0.182414 0.050809 0.174806 67 245 -5
-0.123547 0.032666 -0.234427 -33 253 -17
0.159691 0.031782 -0.213098 39 251 -17
-0.002971 -0.064232 -0.486919 -1 -255 -13
-0.078022 0.021516 0.453434 -7 181 179
0.195355 -0.070863 -0.375016 247 -1 -59
-0.106909 -0.045648 0.487404 -1 -1 255
0.112846 -0.053437 0.486530 97 -75 223
0.177922 -0.013495 0.390064 -1 -173 -187
0.012733 -0.063750 0.490633 15 -79 243
0.046967 -0.110587 0.031677 -5 -255 3
0.206054 0.031838 0.064387 201 155 -5
0.123428 -0.110340 0.149427 3 -255 -1
-0.129144 0.054022 0.347421 63 243 45
-0.144331 0.072910 -0.027458 -233 103 -1
0.145000 0.070675 0.029498 233 103 -1
-0.153289 0.052630 0.073689 -233 103 -1
-0.096194 0.111281 0.011950 -43 251 -19
-0.031275 -0.002036 -0.416867 -1 229 -111
0.203545 -0.026785 0.241315 253 -23 15
0.035094 0.052784 0.282989 -195 165 -9
-0.045114 0.029203 -0.309069 -9 251 -45
0.102177 -0.001285 0.469802 27 215 135
0.016512 -0.109589 0.068418 -5 -255 3
-0.133512 -0.109094 -0.107407 -1 -255 -1
0.185123 -0.067000 0.011050 251 -45 17
-0.067201 0.114058 0.009851 -11 253 -23
-0.169391 0.041293 -0.077132 -31 253 -9
0.020214 -0.110344 -0.021396 -5 -255 3
0.189285 0.043283 0.320392 119 219 57
-0.069931 0.054539 0.367806 -65 233 79
0.194031 -0.071234 -0.124092 251 -39 17
-0.065095 -0.048401 0.493412 85 -11 241
-0.012845 0.056474 0.418853 -1 255 -11
0.189620 0.045933 0.105118 91 235 -37
0.191275 -0.078157 -0.077635 -1 255 -11
-0.095343 -0.109553 -0.078682 -3 -255 -1
0.040323 -0.110879 -0.234466 5 -255 3
0.078887 -0.110611 -0.223701 5 -255 3
-0.148437 0.057559 0.318558 -39 249 43
0.154693 0.034374 -0.176383 65 247 -11
-0.020770 -0.114264 -0.479446 -1 -253 -35
-0.106000 0.062204 0.305631 -153 197 51
-0.059801 -0.041186 0.494263 203 155 -1
0.062750 0.034321 -0.274113 7 253 -31
0.210231 0.002228 -0.135759 253 21 -27
-0.035286 0.012951 -0.381531 -1 237 -93
-0.071202 -0.113002 -0.369859 11 -255 9
-0.125451 0.050706 0.361405 63 243 45
-0.056579 -0.109338 0.153502 5 -255 3
-0.133284 0.061128 -0.127623 -99 209 -109
0.010754 -0.110599 -0.117913 5 -255 3
0.114866 0.048176 0.364821 -17 249 49
-0.007536 -0.111250 -0.202547 -5 -255 3
0.029114 -0.108851 0.179183 -5 -255 3
0.180825 0.038363 -0.111944 31 253 -9
-0.102722 0.042457 -0.173579 -55 205 -143
0.140308 -0.094391 -0.172286 -1 25 -253
-0.195353 0.024368 -0.189137 -91 237 -17
-0.101592 -0.109412 -0.113158 -3 -255 -1
-0.090217 0.089671 0.147568 -1 -1 255
0.023321 -0.110364 -0.044726 3 -255 -1
-0.128723 -0.109654 -0.035893 -3 -255 -1
0.144988 -0.114679 -0.379089 3 -255 -1
0.003021 0.011415 -0.382960 -1 237 -93
0.178459 -0.110536 0.209425 -1 -255 -1
0.152213 0.026678 0.429870 109 175 151
0.116944 0.073290 0.212932 181 175 41
-0.129965 0.067744 0.166606 -203 153 23
-0.199228 -0.064715 -0.355413 -249 -1 -59
0.155383 -0.109705 -0.001362 -1 -255 -1
0.122533 -0.027141 0.485229 61 -15 247
-0.129019 -0.105699 -0.188242 -255 -1 -1
0.148630 -0.109583 0.000552 -1 -255 -1
-0.183192 0.049057 0.108578 -91 235 -37
-0.205149 -0.022767 0.196584 -253 -27 3
0.127828 -0.109260 -0.051063 3 -255 -1
-0.038289 -0.029336 -0.467768 -23 219 -129
-0.145883 0.068714 -0.023563 -233 103 -1
-0.011657 -0.036633 -0.479532 -1 207 -149
-0.186368 -0.101916 0.227196 -233 -101 17
-0.126708 -0.063365 0.473818 -123 -149 167
-0.021130 0.044138 0.355122 -1 253 25
-0.206160 -0.050800 -0.177430 -255 -9 3
0.103468 0.001144 -0.393281 -69 239 -53
0.045701 0.113709 0.005130 -1 253 -23
-0.196849 -0.057084 -0.133075 -251 -39 17
-0.116572 -0.107762 0.383905 3 -255 3
0.005490 -0.060134 0.491345 15 -79 243
-0.039660 0.034613 -0.277562 -1 253 -31
0.197974 -0.080496 0.155989 251 -49 9
-0.185460 0.040974 -0.019967 -83 241 -9
-0.095455 -0.109482 -0.111832 -3 -255 -1
-0.119342 -0.109756 -0.019757 -3 -255 -1
-0.175693 -0.083471 0.230415 -1 -3 255
-0.185227 0.002410 -0.215532 -1 -221 -125
0.060195 -0.109906 -0.058997 3 -255 -1
-0.060753 0.079657 0.195285 113 229 -11
0.170211 0.026950 -0.266107 39 251 -17
0.203604 -0.019693 0.392154 255 -11 5
-0.200029 -0.017279 -0.047416 -255 -19 5
0.204336 0.022327 0.302242 247 61 9
-0.196914 -0.058927 -0.135504 -251 -39 17
0.146335 -0.085626 0.444492 -195 -123 109
-0.024312 -0.105786 0.423751 3 -255 3
-0.178066 0.045367 0.336527 -119 219 57
0.203751 0.020593 -0.057896 251 -39 7
0.183763 -0.077048 0.231309 -1 -49 251
0.188499 0.016167 0.392412 227 85 77
0.082462 -0.041743 -0.477143 61 201 -145
0.162837 -0.002993 -0.295423 -1 -215 135
0.067609 0.032722 -0.285449 25 251 -33
0.154524 -0.113962 -0.334587 -1 33 253
-0.178663 -0.109484 0.015136 -1 -255 -1
0.208846 0.022541 0.243912 255 -19 7
-0.007977 0.055726 0.398997 -1 255 -11
0.091772 -0.070483 0.480295 31 -83 239
-0.175559 0.020672 -0.329307 -37 251 -23
-0.129008 0.000938 0.335724 -255 -1 -1
0.044548 -0.015879 -0.445186 15 229 -111
-0.101419 0.052067 0.389394 -1 255 -11
0.028984 -0.051012 -0.498224 17 -1 -255
-0.129079 -0.038889 -0.296619 -255 -1 -1
0.054051 -0.110314 0.033594 3 -255 -1
-0.197189 -0.100710 0.038331 -219 -129 11
0.186919 -0.074088 -0.030248 251 -39 17
0.114938 0.019128 0.450478 47 131 213
-0.122442 -0.109658 -0.035322 -3 -255 -1
0.202905 -0.086476 0.011173 251 -39 11
0.078563 0.081586 0.234468 -13 253 25
-0.084844 -0.066300 0.483201 -31 -83 239
-0.155731 -0.109707 -0.027494 -1 -255 -1
0.040328 0.012849 -0.380307 15 237 -95
-0.185927 0.025071 -0.204159 -65 247 -11
0.062502 0.055038 0.414926 11 255 -13
0.013192 -0.107716 0.228355 -5 -255 3
0.052649 0.055838 0.416905 11 255 -13
-0.205499 -0.051740 0.100305 -255 -7 19
0.080660 -0.109904 -0.019653 3 -255 -1
0.183538 0.061971 -0.128488 147 83 -191
-0.102696 -0.113377 -0.458398 -1 -255 -1
0.082962 -0.030443 0.489743 31 -15 253
-0.129040 -0.049584 0.245267 -255 -1 -1
0.141879 -0.109556 -0.063097 -1 -255 -1
0.117309 -0.109732 -0.468511 73 -173 -173
0.103553 -0.110094 0.062230 3 -255 -1
0.022074 -0.106165 0.411103 -3 -255 3
-0.134877 0.030713 -0.248311 29 253 -19
-0.205510 0.010642 -0.182693 -245 67 -23
-0.091926 -0.110333 0.179249 5 -255 3
-0.066416 0.032841 -0.282348 -7 253 -31
-0.133416 0.017369 -0.359389 45 249 -33
0.064444 0.021387 -0.347329 27 249 -45
0.167903 -0.109296 -0.089355 -1 -255 -1
-0.199261 -0.022760 -0.036383 -255 -19 5
-0.182854 -0.113621 -0.379677 -37 -251 -19
0.092755 0.038504 -0.186739 9 255 -11
-0.023852 -0.064654 -0.477935 -1 -255 -13
0.173540 0.031895 0.399441 119 219 57
-0.048386 -0.019776 -0.451181 -19 215 -137
0.102221 -0.113388 -0.333049 -11 -255 9
-0.137354 -0.110200 0.153623 -1 -255 -1
0.131302 -0.109115 -0.115541 -1 -255 -1
0.121025 -0.108461 0.350007 -3 -255 3
-0.034221 0.114686 0.059588 -1 255 -1
0.147501 0.006341 -0.386990 55 199 -149
0.045181 0.107700 -0.058731 -1 253 -23
0.080728 -0.114059 -0.446007 1 -255 -1
-0.199677 0.019843 -0.247074 -153 205 -7
0.089993 0.078296 0.256468 67 243 35
0.100449 0.106851 -0.041645 43 251 -19
-0.177552 0.039400 -0.094352 -31 253 -9
0.129201 -0.090263 -0.217205 255 -1 -1
0.041480 0.059341 0.315545 -195 163 13
0.119037 -0.014917 0.487230 61 -15 247
-0.017308 0.007241 -0.395178 -1 237 -93
-0.210122 0.029039 0.221805 -255 -19 7
0.206631 -0.029860 0.129148 249 -55 1
-0.051525 0.111604 0.075982 -1 243 79
-0.006974 -0.108102 0.192873 5 -255 3
-0.134792 0.061368 0.236654 -11 255 1
0.080401 0.108266 -0.046449 11 253 -23
0.096770 -0.110182 0.053202 3 -255 -1
0.008751 0.060496 0.115930 33 -9 253
-0.147182 -0.109691 -0.016606 -1 -255 -1
-0.030695 -0.108250 0.219320 5 -255 3
-0.132306 0.029754 -0.256526 57 247 -25
-0.077901 -0.027295 0.493762 -31 -15 253
-0.195802 -0.111305 -0.365056 -251 -1 -43
-0.105722 0.034121 -0.241819 -33 251 -33
-0.091547 -0.111415 -0.286806 11 -255 9
0.049266 -0.107766 0.362379 -3 -255 3
0.017343 0.113553 0.003838 -1 253 -23
0.129079 -0.052862 -0.176410 255 -1 -1
-0.139930 -0.032539 0.476003 -129 -15 219
-0.110532 0.051811 0.391922 -1 255 -11
-0.108337 -0.103360 -0.446818 -9 255 -19
0.201818 0.034041 0.303738 249 45 23
-0.021350 0.034440 -0.275426 -1 253 -31
-0.134539 -0.113858 -0.416333 -1 -255 -1
-0.027933 -0.106113 0.398045 3 -255 3
-0.155341 0.019054 0.434510 -111 155 169
0.169096 -0.015977 -0.311180 -1 -165 195
0.202525 0.032606 0.302309 249 45 23
0.188612 -0.109640 -0.058619 -1 -255 -1
0.012785 0.040214 -0.193734 -1 215 -137
-0.086598 -0.109898 0.007458 -3 -255 -1
-0.007488 -0.044782 -0.490719 -1 207 -149
0.137786 -0.046285 -0.330117 -1 -93 237
-0.017805 -0.112598 -0.395196 -5 -255 3
0.079028 0.109033 -0.039103 11 253 -23
-0.079575 -0.110138 -0.188882 -5 -255 3
0.200985 0.009089 0.369068 189 157 71
0.204142 -0.038100 0.200356 255 -19 9
0.203667 0.022633 0.310948 247 61 9
0.116946 -0.109205 -0.085056 3 -255 -1
0.028746 -0.110325 -0.066899 3 -255 -1
-0.168875 0.043452 -0.012642 -31 253 -9
0.125182 0.025844 -0.278514 -57 247 -25
-0.128977 -0.075745 -0.293575 -255 -1 -1
0.008880 -0.096627 0.457956 11 -217 133
0.011291 -0.112348 -0.306439 5 -255 3
0.054528 -0.050891 0.495523 15 -1 255
-0.052492 0.059890 -0.162067 -27 213 -137
0.044916 -0.106992 0.379895 -3 -255 3
-0.053965 0.098426 -0.087812 -9 239 -89
-0.117115 -0.109682 -0.204805 11 -255 9
0.120173 -0.107411 0.404073 -3 -255 3
0.138462 0.029232 0.434154 79 189 153
0.057861 0.083552 0.135649 -221 127 -1
0.191033 -0.049579 -0.031814 239 -89 11
-0.200348 -0.018056 -0.069155 -255 -19 5
0.116094 -0.032129 -0.449123 47 223 -113
-0.160235 -0.004013 -0.393575 -121 163 -155
-0.209153 0.013516 0.201346 -253 -27 3
-0.200550 -0.011059 -0.065466 -255 -19 5
-0.019620 -0.110362 -0.133625 -5 -255 3
0.139687 0.035252 0.426489 31 245 63
-0.136112 0.084981 0.087798 -201 157 -1
-0.208889 0.026681 0.014968 -207 149 -5
-0.112745 -0.110019 0.121799 -3 -255 -1
0.006124 0.053826 0.193382 -7 255 5
0.153931 -0.060869 0.407775 -1 -13 -255
-0.097922 0.040845 0.403183 -7 247 65
0.183065 -0.068768 0.034521 251 -45 17
0.090818 -0.109848 -0.190106 5 -255 3
-0.057243 0.100320 0.115026 -1 255 -1
-0.092605 0.077143 0.261365 -67 243 35
-0.027622 -0.081410 0.476180 -13 -199 161
-0.203548 -0.073174 -0.339776 -249 -1 -59
-0.089402 -0.109490 -0.167338 -5 -255 3
-0.029030 0.014829 -0.375204 -1 237 -93
-0.163904 0.055859 0.226798 -73 245 3
0.045993 -0.110263 0.057864 -5 -255 3
0.191195 0.010444 0.390290 227 85 77
-0.209491 0.009926 0.148478 -253 -27 3
-0.024769 0.038392 -0.224807 -1 255 -3
-0.191225 -0.114411 -0.348605 -1 -255 -3
-0.039124 0.056744 0.419330 -11 255 -13
0.043818 0.036218 -0.260886 7 253 -31
0.162068 -0.109192 -0.062637 -1 -255 -1
0.119335 -0.074999 0.466942 79 -195 145
-0.208262 0.000937 0.194210 -253 -27 3
0.178730 0.047997 0.097945 35 249 -41
0.119850 -0.108612 0.377273 -3 -255 3
0.103021 0.055289 0.445560 25 245 65
0.210986 0.030342 0.176511 255 -21 3
0.153537 0.058264 0.254968 51 249 7
0.175919 -0.011112 0.254543 -1 -147 207
0.198835 -0.005259 0.077998 255 -17 5
0.189951 -0.033775 -0.376429 189 139 -99
-0.143261 -0.110209 0.122424 -1 -255 -1
0.204491 0.039111 0.229216 109 231 7
0.112745 -0.011642 0.485131 27 231 105
0.015760 0.040996 0.384579 -1 253 39
-0.138789 0.081757 0.082192 -201 157 -1
0.036940 -0.110639 -0.180084 5 -255 3
0.124298 -0.110421 0.222228 -5 -255 3
0.173498 -0.109312 -0.086454 -1 -255 -1
-0.138511 -0.109350 -0.078792 -1 -255 -1
0.138582 -0.060016 -0.173840 -1 -33 -253
-0.076387 0.076073 0.282372 25 253 27
-0.013500 -0.112887 -0.419044 -5 -255 3
-0.201802 -0.102000 -0.338872 -247 -35 -51
-0.172209 -0.110219 0.155217 -1 -255 -1
-0.123181 -0.110037 0.125476 -3 -255 -1
0.203282 -0.054586 0.124036 255 -7 19
0.146719 -0.110234 0.144634 -1 -255 -1
0.129203 -0.058465 0.316209 255 -1 -1
-0.202348 -0.076780 0.056157 -251 -49 9
0.154479 0.049636 -0.021729 233 103 -1
0.198459 -0.017909 0.030693 255 -19 5
0.149331 -0.018981 -0.413589 113 149 -173
-0.125996 0.099064 0.078092 -141 213 -1
-0.169238 0.028966 -0.239729 -39 251 -17
-0.040786 -0.113439 -0.469975 -1 -255 -1
0.052847 0.010087 0.465868 43 205 145
-0.142446 -0.065761 0.408074 -1 -13 -255
-0.044792 0.096189 -0.094591 -1 241 -83
0.189537 -0.072910 -0.069645 251 -39 17
0.187973 0.036873 -0.114103 87 239 -9
0.004313 -0.108142 0.190377 -5 -255 3
0.182712 -0.100731 0.230023 -1 -3 255
0.154941 -0.003857 0.452187 97 201 123
0.151820 0.044220 0.380248 55 243 55
0.204187 -0.042764 0.117992 255 -7 19
-0.023798 0.057207 -0.167773 -1 215 -137
0.186890 -0.053387 0.024001 239 -89 11
0.044924 -0.107898 0.330128 -3 -255 3
0.051488 0.084833 -0.117214 11 227 -113
0.089167 -0.109451 -0.117338 3 -255 -1
-0.150660 0.059876 0.195366 -31 253 -19
0.120251 -0.107224 -0.467778 129 -1 -221
-0.013485 -0.064682 -0.481258 -1 -255 -13
-0.047017 -0.011142 0.495463 -9 205 151
-0.200765 -0.072115 0.141555 -239 -87 7
0.008841 0.069222 -0.148360 -1 229 -113
-0.057244 -0.110517 0.026268 -3 -255 -1
-0.117310 -0.112111 -0.268695 11 -255 9
0.125017 0.051628 -0.150113 77 203 -135
0.037241 -0.111191 -0.243609 5 -255 3
-0.144301 -0.026311 0.244823 -1 -81 241
-0.179217 -0.012906 0.440963 -169 155 111
-0.171279 -0.109797 0.088729 -1 -255 -1
0.016346 0.049056 0.309990 -15 253 33
-0.031551 0.022484 0.453802 1 181 179
0.124741 0.035777 -0.202913 23 253 -27
-0.049775 -0.110962 -0.258270 -5 -255 3
-0.147647 -0.048927 -0.175862 -1 -79 -243
-0.066886 -0.000543 0.475264 -43 205 145
-0.131683 0.060585 0.204631 135 215 -7
0.030953 -0.004508 -0.421593 -1 229 -111
-0.180803 0.051587 0.184529 -67 245 -5
0.100936 -0.008471 0.483075 13 227 117
-0.066562 -0.109168 0.250750 5 -255 3
-0.143721 0.073877 0.030048 -233 103 -1
0.132696 -0.108743 -0.161896 -1 -255 -1
-0.102777 -0.110362 0.205460 5 -255 3
0.125676 -0.114329 -0.414083 1 -255 -1
-0.202407 -0.084219 -0.133868 -239 89 -9
-0.184361 0.047959 0.263973 -111 229 7
0.165221 -0.109979 0.080820 -1 -255 -1
-0.149923 0.046025 0.376210 -55 243 55
-0.047690 -0.110201 -0.074822 -3 -255 -1
-0.202634 0.042000 0.180607 -109 231 1
0.130905 0.040460 -0.164025 77 203 -135
0.054741 0.078251 0.142591 -221 127 -1
0.181229 -0.109616 0.007495 -1 -255 -1
-0.139470 0.036467 -0.189161 -11 255 -13
0.086249 -0.108207 0.369508 -3 -255 3
0.202199 -0.048708 0.211632 247 -59 -1
0.027298 -0.098738 -0.467699 -1 -7 -255
-0.116251 0.053811 0.442619 -25 245 65
-0.201827 -0.016022 -0.136015 -255 -19 5
0.075668 -0.021266 -0.445435 47 223 -113
0.191482 -0.034176 -0.372579 225 97 -71
-0.176673 -0.014780 0.391288 -1 -173 -187
-0.033158 -0.108903 0.147799 5 -255 3
-0.022761 -0.108541 0.179539 5 -255 3
0.149217 -0.110023 0.075413 -1 -255 -1
-0.184217 -0.045906 0.434319 -215 -3 137
0.193061 0.032075 0.350382 211 127 67
0.067249 0.104358 0.098245 -1 243 79
-0.014854 -0.063527 0.490535 -15 -79 243
-0.146782 0.054264 0.336682 -39 249 43
0.043910 -0.110615 -0.222866 5 -255 3
0.054822 -0.060078 -0.496546 17 -1 -255
0.178502 0.051983 0.199105 73 245 3
-0.201958 -0.066569 0.138460 -255 -7 19
-0.197207 -0.009821 0.402369 -193 147 77
-0.132997 0.010048 -0.385228 9 223 -123
0.144898 -0.109153 -0.091458 -1 -255 -1
0.093103 0.023036 0.450685 7 181 179
-0.028238 0.028014 -0.320507 -1 251 -45
-0.149335 0.061337 0.018965 -233 103 -1
0.004922 0.064708 -0.155717 -1 215 -137
-0.094254 0.066139 -0.141388 -45 209 -139
0.175307 -0.028713 -0.401754 217 69 -115
-0.078119 -0.108734 0.314057 3 -255 3
-0.179654 0.017262 -0.341412 -87 237 -41
0.164465 0.001862 0.374012 -1 -233 -103
-0.075026 0.088908 0.147895 -1 -1 255
0.185681 0.031364 -0.153369 87 237 -43
-0.196746 -0.023590 0.245710 -1 -81 241
0.064498 -0.011380 0.492589 13 227 117
0.202355 -0.097075 -0.335988 253 -29 -1
0.112623 -0.109034 0.286506 -3 -255 3
-0.173793 0.037449 0.376660 -119 219 57
0.099615 -0.005845 -0.413158 -17 235 -97
0.046169 0.057682 0.455497 33 -9 253
-0.175829 -0.113961 -0.371046 -1 -255 -3
-0.128927 -0.015010 0.287208 -255 -1 -1
0.045808 -0.110421 -0.188048 5 -255 3
-0.090723 -0.109272 0.284447 3 -255 3
-0.010039 0.108268 -0.052908 -1 253 -23
-0.120087 0.104077 0.082899 -169 189 9
0.200027 -0.014756 -0.039939 255 -19 5
0.063006 0.013983 0.460918 65 39 243
0.082559 -0.109795 0.217653 -5 -255 3
-0.067294 -0.108344 0.332492 3 -255 3
-0.204111 0.019565 -0.074793 -253 -39 7
-0.157336 0.047345 0.056279 -31 253 -9
-0.151307 -0.033664 0.467947 -157 -15 201
0.101737 0.087878 -0.100528 41 221 -121
0.115825 -0.110374 0.150646 3 -255 -1
0.030901 0.110847 -0.027036 -1 253 -23
0.207075 0.037519 0.151032 235 95 -25
0.180134 -0.110393 0.210646 -1 -255 -1
0.177307 -0.059246 -0.418037 225 -1 -119
0.043286 0.100483 0.115384 1 255 -1
0.074432 0.022122 -0.336988 27 249 -45
0.199580 -0.091039 0.065207 251 -39 11
0.020020 -0.110249 -0.095598 3 -255 -1
0.040936 -0.110138 -0.116752 5 -255 3
0.194453 -0.068420 -0.128295 251 -39 17
-0.016867 0.113098 -0.001605 -1 253 -23
-0.172249 0.017362 0.327040 -1 -253 -37
0.029627 -0.034060 -0.475936 -1 207 -149
-0.034719 -0.108935 0.201194 5 -255 3
0.082745 -0.109727 0.185027 -5 -255 3
0.175801 0.014899 0.342915 -1 -253 -37
0.131020 0.038557 -0.166306 77 203 -135
0.180985 -0.078644 0.432330 209 -71 129
-0.171123 0.016849 0.303409 -1 -251 45
-0.177741 -0.114180 -0.345737 -1 -255 -3
-0.041255 0.006553 -0.396450 -15 237 -95
-0.115372 -0.112242 -0.283922 11 -255 9
-0.129554 -0.054353 -0.281964 -255 -1 -1
0.201312 0.036232 0.003594 87 239 -9
-0.029926 -0.072701 0.485730 -15 -79 243
0.084152 0.112760 0.011888 23 253 -19
0.100215 0.054314 0.338688 87 225 83
0.092429 -0.114358 -0.401106 1 -255 -1
0.093054 -0.109759 -0.194646 5 -255 3
-0.158249 -0.109232 -0.069669 -1 -255 -1
-0.201416 -0.016510 -0.127299 -255 -19 5
0.041153 -0.111176 -0.230353 5 -255 3
0.187463 -0.008169 -0.303303 -1 -215 135
-0.099618 -0.109730 -0.027561 -3 -255 -1
-0.185095 0.002726 0.412825 -209 19 145
-0.067505 0.090016 -0.104817 -23 225 -117
-0.129217 -0.098116 0.307118 -255 -1 -1
0.091600 0.101016 -0.074826 23 237 -93
-0.054917 -0.106579 0.413807 3 -255 3
-0.130608 0.090266 -0.038498 -177 183 -11
0.152486 0.055764 0.144230 31 253 -19
-0.074154 0.020391 0.454906 -7 181 179
-0.138110 -0.110201 0.186519 -1 -255 -1
-0.039891 0.051609 0.364922 89 235 47
-0.182796 0.021881 -0.298851 -37 251 -23
0.081915 0.111888 0.076512 29 253 21
0.117241 -0.109201 -0.107255 3 -255 -1
0.171996 0.043990 0.010933 31 253 -9
-0.208391 -0.008294 0.145063 -255 -23 7
0.101322 -0.018146 0.491124 31 -15 253
0.047719 -0.110046 0.100875 -5 -255 3
0.189673 0.016472 0.302855 -1 -251 45
0.068310 -0.110194 -0.187558 5 -255 3
-0.200922 -0.080651 -0.348183 -249 -1 -59
-0.206324 0.039983 0.152110 -109 231 1
0.208310 0.038496 0.200580 109 231 7
-0.208861 0.008914 -0.142505 -253 21 -27
0.111843 -0.108595 0.314392 -3 -255 3
-0.051728 -0.107209 0.370487 3 -255 3
0.107883 -0.113524 -0.456896 1 -255 -1
-0.025417 0.113419 0.070594 -1 243 79
0.028048 0.101329 0.110547 3 245 73
0.069608 0.113043 0.000817 11 253 -23
0.129135 -0.104836 0.291747 255 -1 -1
-0.203630 0.035445 0.278695 -249 45 23
-0.114519 0.020554 0.449682 101 169 161
-0.002705 -0.109969 -0.020331 5 -255 3
-0.187504 -0.080294 -0.337487 -1 -29 253
0.082420 0.038188 -0.220060 17 253 -17
0.160607 0.045965 0.025394 31 253 -9
-0.105994 -0.110784 -0.258773 11 -255 9
0.085180 -0.110239 0.152031 -5 -255 3
-0.116562 -0.109375 -0.053277 -3 -255 -1
-0.205877 0.025099 0.278780 -249 45 23
0.202356 0.037302 0.083116 201 155 -17
0.175050 -0.110003 0.165321 -1 -255 -1
-0.130332 0.052846 0.353772 63 243 45
-0.128988 -0.045518 -0.223048 -255 -1 -1
-0.030764 0.033427 -0.284786 -1 253 -31
-0.203292 -0.010548 0.389605 -193 147 77
0.165152 0.030261 -0.226400 39 251 -17
-0.122626 -0.058521 -0.465757 -129 -1 -221
-0.021810 0.049707 0.307313 15 253 33
-0.026377 -0.035878 0.494173 -15 -15 255
0.002541 -0.107493 0.251152 -5 -255 3
-0.145981 -0.113496 -0.421504 -1 -255 -1
-0.118268 -0.110977 -0.250462 11 -255 9
0.023163 0.038399 -0.235500 -1 255 -15
0.052101 -0.111708 -0.488052 7 -253 -37
0.053992 0.072189 0.267955 -113 227 19
0.129394 -0.069264 -0.220856 255 -1 -1
-0.115915 0.055370 0.330377 17 249 49
0.059152 0.114729 0.051062 -1 255 -1
0.205509 -0.098666 -0.123488 251 -45 -7
-0.191151 -0.037095 0.090585 -239 -89 -9
0.131640 -0.110332 0.167659 -1 -255 -1
-0.000579 -0.047213 -0.500024 -17 -1 -255
0.032845 -0.111818 -0.295900 5 -255 3
-0.172530 0.029126 -0.219727 -69 245 -1
0.169742 0.053605 0.301610 73 245 3
-0.197431 -0.108795 -0.063263 -219 -129 11
0.166707 -0.032912 0.455030 175 9 185
-0.150739 0.001649 0.451995 -99 145 185
0.190143 0.047765 0.178479 109 231 1
-0.039805 -0.111149 -0.222125 -5 -255 3
-0.126695 0.016630 -0.355607 75 239 -43
0.068389 -0.109757 -0.111138 3 -255 -1
0.106670 0.033448 -0.246245 33 251 -33
0.060223 -0.113343 -0.390754 -11 -255 9
-0.004799 0.052265 0.242850 7 255 5
0.020403 0.053532 0.221016 -7 255 5
-0.155570 -0.043187 0.404820 -1 -91 -239
0.187983 -0.037865 -0.386783 189 139 -99
-0.208732 0.000477 0.152562 -255 -23 7
-0.038991 -0.019198 0.497556 -15 -15 255
-0.129426 -0.091495 -0.301424 -255 -1 -1
0.105898 -0.114169 -0.427776 1 -255 -1
0.007070 0.048510 -0.181476 -1 215 -137
-0.060445 0.024825 0.450543 -7 181 179
0.005643 -0.112237 -0.309457 5 -255 3
0.180977 -0.094641 0.423786 209 -71 129
-0.120653 -0.109902 0.239799 3 -255 3
-0.027666 0.044150 0.361180 -1 253 25
0.075533 0.063979 0.334301 59 235 77
0.149003 -0.019374 0.248247 -1 -147 207
0.018549 -0.012310 -0.437845 -1 229 -111
0.074755 -0.109794 -0.078372 3 -255 -1
0.083216 0.078689 0.262180 -13 253 25
-0.190729 0.044617 0.265380 -111 229 7
-0.112364 -0.109146 -0.134803 -3 -255 -1
0.052438 -0.114117 -0.423887 -1 -255 -1
-0.095658 -0.114268 -0.372536 -1 -255 -1
-0.011481 0.053155 0.211932 7 255 5
-0.205319 -0.064060 0.086774 -239 -87 7
0.200611 0.018253 0.047708 255 -17 5
0.102725 -0.008076 -0.416645 25 209 -145
-0.153400 0.042238 -0.136387 -197 157 -41
-0.017575 -0.108572 0.201320 5 -255 3
-0.024782 0.101570 0.109782 -3 245 73
-0.046558 -0.106671 0.439346 3 -255 3
-0.197057 0.026922 0.347255 -211 127 67
0.041016 -0.104883 -0.487615 3 255 -21
-0.019996 -0.111761 -0.489835 -1 -253 -35
0.120646 -0.110007 0.277070 -3 -255 3
0.023148 -0.109937 0.027845 -5 -255 3
0.183657 0.025261 -0.250185 69 245 -1
-0.202505 -0.046926 0.226384 -255 -19 9
-0.132633 0.072043 -0.106629 -99 209 -109
0.207491 -0.000278 0.211474 253 -27 3
-0.126670 0.073358 -0.109597 -99 209 -109
-0.060968 0.113286 0.070779 -1 243 79
