ply
format ascii 1.0
element vertex 1310
property float x
property float y
property float z
property uchar red
property uchar green
property uchar blue
end_header
0.112228 0.102866 -0.054665 0 255 0
-0.041962 -0.115977 -0.100416 0 255 0
-0.056617 -0.111454 0.357471 0 255 0
-0.300971 0.437317 0.185377 0 255 0
0.192418 0.017234 0.341089 0 255 0
-0.086220 0.025574 -0.297514 0 255 0
-0.499259 -0.392460 -0.371933 0 255 0
-0.158261 0.047134 -0.203479 0 255 0
-0.040279 0.009834 -0.399478 0 255 0
0.144739 -0.126763 -0.348469 0 255 0
-0.099314 0.137841 0.023373 0 255 0
0.128426 0.067764 -0.106601 0 255 0
-0.497557 0.111471 0.425365 0 255 0
-0.038575 -0.120252 -0.253568 0 255 0
-0.031716 -0.001186 -0.420234 0 255 0
0.294437 0.063991 -0.151947 0 255 0
0.118550 -0.065964 -0.294987 0 255 0
-0.103327 0.076528 0.473977 0 255 0
-0.196400 -0.016179 0.054439 0 255 0
0.136447 0.043265 0.358920 0 255 0
0.160614 -0.050444 -0.443278 0 255 0
0.159535 0.058517 0.006142 0 255 0
0.092209 -0.120772 0.306546 0 255 0
-0.088316 0.129774 -0.272390 0 255 0
-0.133917 -0.045935 0.307423 0 255 0
-0.165942 -0.080696 0.461809 0 255 0
-0.116821 0.059567 -0.129592 0 255 0
-0.203610 -0.016647 0.339855 0 255 0
0.010189 -0.123235 -0.239259 0 255 0
-0.007216 -0.122680 -0.201689 0 255 0
-0.018309 -0.111161 0.225031 0 255 0
-0.029440 -0.125568 -0.479726 0 255 0
-0.062505 -0.033010 0.496909 0 255 0
0.054365 -0.262940 0.456182 0 255 0
0.040201 0.093303 0.268569 0 255 0
0.192662 -0.059193 -0.374798 0 255 0
0.035060 -0.116593 -0.257918 0 255 0
0.191185 -0.110651 0.108914 0 255 0
-0.143423 -0.115987 -0.052695 0 255 0
-0.175812 0.028838 -0.311073 0 255 0
-0.178473 -0.120781 0.039701 0 255 0
0.049816 -0.122054 -0.366214 0 255 0
-0.206337 -0.029647 0.138541 0 255 0
-0.145698 0.031944 0.370521 0 255 0
0.013417 -0.495586 0.448384 0 255 0
-0.196508 -0.033857 0.145896 0 255 0
-0.098231 0.013999 -0.355520 0 255 0
-0.131771 0.035667 0.401324 0 255 0
-0.186653 0.016507 0.050731 0 255 0
0.114691 -0.099913 -0.456102 0 255 0
0.089896 -0.118587 0.092327 0 255 0
0.193663 -0.095783 -0.349602 0 255 0
0.074804 -0.122095 -0.416711 0 255 0
0.173916 0.219086 0.397692 0 255 0
0.167338 -0.034385 -0.425153 0 255 0
-0.154244 -0.107006 0.396343 0 255 0
-0.152179 0.220608 -0.296043 0 255 0
0.081256 -0.027243 -0.445071 0 255 0
-0.440148 -0.129913 0.159334 0 255 0
-0.080071 -0.027041 -0.463952 0 255 0
-0.031957 -0.114431 0.478311 0 255 0
-0.092082 0.020297 0.459558 0 255 0
0.036794 -0.121183 -0.412210 0 255 0
-0.080100 -0.117409 0.154658 0 255 0
0.197800 -0.104570 0.132231 0 255 0
0.157398 -0.018335 -0.311042 0 255 0
0.137975 0.066531 0.246353 0 255 0
-0.328148 -0.315864 0.109947 0 255 0
-0.004784 -0.117022 -0.270964 0 255 0
-0.428675 0.007818 0.129903 0 255 0
0.155859 -0.118053 -0.098452 0 255 0
-0.037131 -0.110020 0.361256 0 255 0
0.148690 0.041119 0.314915 0 255 0
0.047061 -0.115578 0.152135 0 255 0
0.053346 0.134982 0.069086 0 255 0
-0.090268 0.077920 0.319870 0 255 0
-0.122315 -0.114730 0.298528 0 255 0
0.398564 0.046659 0.411628 0 255 0
0.107180 -0.097727 0.430310 0 255 0
-0.041972 -0.126812 -0.343536 0 255 0
-0.135321 0.109570 0.166119 0 255 0
0.069394 -0.119520 0.091322 0 255 0
0.075392 0.045893 0.469080 0 255 0
-0.364445 0.430370 0.077835 0 255 0
-0.195332 -0.051285 -0.066603 0 255 0
0.167921 0.031305 -0.241463 0 255 0
0.090572 0.038722 -0.232961 0 255 0
-0.016244 0.122737 0.189349 0 255 0
0.356798 0.381035 -0.066402 0 255 0
-0.418662 -0.124195 0.051515 0 255 0
-0.201032 -0.072539 0.377731 0 255 0
-0.170131 0.026077 -0.354733 0 255 0
0.031937 -0.121018 -0.084171 0 255 0
-0.131161 0.088464 0.219944 0 255 0
0.154516 -0.127661 0.453788 0 255 0
-0.459232 0.358259 -0.206428 0 255 0
-0.112289 0.066214 0.343466 0 255 0
0.149576 -0.121097 -0.064820 0 255 0
0.045109 -0.112348 0.298705 0 255 0
-0.018573 -0.040323 -0.494585 0 255 0
0.190374 -0.070656 0.054223 0 255 0
-0.191524 0.010940 0.032970 0 255 0
-0.191588 -0.012479 -0.064172 0 255 0
-0.142586 -0.021946 0.275936 0 255 0
0.391640 -0.223472 -0.195009 0 255 0
0.061507 -0.038669 0.493273 0 255 0
0.129302 0.401510 0.481838 0 255 0
0.171303 -0.127287 0.377376 0 255 0
-0.017107 0.129289 0.143986 0 255 0
0.006058 -0.120215 -0.293595 0 255 0
0.142481 -0.111225 -0.460810 0 255 0
0.027563 0.019612 -0.350341 0 255 0
0.166209 -0.102050 -0.183377 0 255 0
-0.008619 -0.086290 0.489570 0 255 0
0.083570 -0.117093 -0.126070 0 255 0
0.182563 -0.021661 0.413004 0 255 0
0.096271 0.009863 0.488775 0 255 0
0.148878 -0.368889 0.425745 0 255 0
0.078021 0.034764 0.474334 0 255 0
-0.114205 -0.114466 0.485727 0 255 0
0.172544 -0.063124 -0.345453 0 255 0
0.036538 -0.125559 -0.053024 0 255 0
-0.191828 -0.032111 -0.343464 0 255 0
-0.123158 -0.123575 0.143894 0 255 0
-0.070640 -0.077734 -0.486039 0 255 0
-0.099717 0.011438 0.461443 0 255 0
0.195354 0.013933 0.060384 0 255 0
0.049520 0.048047 -0.178888 0 255 0
0.201310 -0.191549 -0.499161 0 255 0
-0.170891 0.027972 -0.262053 0 255 0
0.090694 -0.116422 0.012820 0 255 0
-0.191390 -0.065151 0.402001 0 255 0
0.029060 0.116369 0.203096 0 255 0
0.285511 -0.128757 0.319871 0 255 0
-0.200699 -0.054495 -0.346920 0 255 0
0.154488 0.061181 -0.114076 0 255 0
0.201188 0.011610 0.203415 0 255 0
0.086462 0.015812 -0.352627 0 255 0
0.153724 0.038717 -0.205424 0 255 0
-0.117197 -0.118136 -0.180171 0 255 0
-0.053027 0.094523 -0.087142 0 255 0
-0.196996 -0.090535 -0.025672 0 255 0
0.199367 -0.013754 -0.368496 0 255 0
0.202711 -0.014291 0.228069 0 255 0
0.115774 0.075893 0.309536 0 255 0
0.045744 0.105534 -0.085144 0 255 0
0.095211 0.069512 0.419089 0 255 0
-0.498301 0.325807 -0.498732 0 255 0
0.128971 0.036528 -0.165110 0 255 0
-0.193354 -0.016742 -0.015263 0 255 0
-0.012260 -0.118801 0.169437 0 255 0
0.059170 -0.010650 -0.430199 0 255 0
0.017340 0.433788 -0.422461 0 255 0
0.343282 0.007313 0.012001 0 255 0
0.062791 -0.112621 -0.490828 0 255 0
0.098239 0.057547 -0.400218 0 255 0
-0.090211 -0.420255 0.031570 0 255 0
0.041078 -0.122730 -0.383345 0 255 0
0.069668 -0.111614 0.323007 0 255 0
0.192847 -0.020040 -0.114988 0 255 0
-0.041677 -0.119489 0.085377 0 255 0
0.132746 0.031969 0.390416 0 255 0
0.205842 -0.011005 0.363858 0 255 0
-0.087543 0.119482 0.170315 0 255 0
0.034851 -0.118984 0.083540 0 255 0
-0.030023 -0.118053 0.162825 0 255 0
-0.335128 -0.401094 -0.494124 0 255 0
-0.187613 -0.014123 -0.382913 0 255 0
-0.184272 -0.119881 0.380639 0 255 0
0.020569 0.063732 -0.144630 0 255 0
0.193679 -0.036847 -0.073964 0 255 0
-0.195672 -0.119238 0.147963 0 255 0
-0.131466 0.073539 0.413334 0 255 0
-0.085951 0.069807 0.473377 0 255 0
-0.040079 -0.113544 0.221152 0 255 0
0.052390 0.235580 -0.008543 0 255 0
-0.031456 0.350553 -0.241241 0 255 0
0.166341 -0.013981 -0.290722 0 255 0
0.297902 0.086295 0.186987 0 255 0
0.134116 0.007216 0.462057 0 255 0
0.193077 -0.012238 0.026704 0 255 0
-0.008655 0.044663 -0.288354 0 255 0
0.194790 0.263928 0.078727 0 255 0
-0.163564 0.042141 0.254060 0 255 0
-0.115588 0.005926 0.465859 0 255 0
0.132473 0.069737 0.475923 0 255 0
0.011576 0.101352 -0.080311 0 255 0
0.121840 0.092681 0.254788 0 255 0
-0.002387 -0.116604 -0.309282 0 255 0
0.014488 0.064259 0.369858 0 255 0
0.151008 -0.467880 -0.256593 0 255 0
0.018253 0.048367 -0.204517 0 255 0
0.148867 0.034775 -0.300322 0 255 0
0.182591 0.022433 -0.079593 0 255 0
0.024032 0.460083 0.235673 0 255 0
0.121591 0.044400 -0.164654 0 255 0
-0.019382 -0.122126 -0.346246 0 255 0
0.096861 0.026558 -0.314103 0 255 0
-0.003262 -0.333471 0.373776 0 255 0
0.195245 -0.084836 -0.353057 0 255 0
0.133307 -0.118636 -0.119618 0 255 0
0.003471 -0.113185 0.271819 0 255 0
0.180153 -0.004996 0.393761 0 255 0
0.063252 -0.118898 -0.273661 0 255 0
0.416615 0.024367 0.419478 0 255 0
0.107565 0.054469 -0.144442 0 255 0
-0.120321 0.046069 -0.222476 0 255 0
0.358560 -0.420254 0.191362 0 255 0
0.145452 -0.119480 0.131164 0 255 0
0.128232 -0.098973 0.395022 0 255 0
-0.176042 -0.035932 -0.410001 0 255 0
0.191946 -0.014778 0.040840 0 255 0
0.106552 -0.125179 -0.378337 0 255 0
0.419163 0.494898 0.284207 0 255 0
0.158079 0.046921 0.106867 0 255 0
-0.060975 0.077296 0.318469 0 255 0
-0.361704 0.462752 -0.120979 0 255 0
-0.345167 0.129506 0.462306 0 255 0
-0.188409 -0.117528 0.369304 0 255 0
-0.132028 0.115594 -0.003305 0 255 0
-0.060471 0.434062 0.132436 0 255 0
0.091638 0.058643 -0.145607 0 255 0
-0.048510 -0.116657 0.214622 0 255 0
0.071631 0.011211 -0.401674 0 255 0
0.145093 0.075361 0.169176 0 255 0
-0.166213 0.033569 -0.271333 0 255 0
0.205085 0.068615 -0.055853 0 255 0
-0.068628 0.050629 -0.171194 0 255 0
-0.469461 -0.074873 -0.026867 0 255 0
-0.212349 0.183338 -0.479031 0 255 0
0.200819 -0.052674 0.360695 0 255 0
0.110154 -0.119844 0.130539 0 255 0
0.047805 -0.006057 0.482815 0 255 0
0.177178 -0.126088 0.123204 0 255 0
0.035516 0.076679 0.460969 0 255 0
0.034702 -0.050301 -0.493036 0 255 0
0.035772 0.076350 -0.127329 0 255 0
-0.114339 -0.076863 -0.273726 0 255 0
-0.061309 -0.110461 0.408495 0 255 0
0.197567 -0.083151 0.340485 0 255 0
0.075440 -0.118239 -0.332060 0 255 0
0.093611 0.094160 -0.079982 0 255 0
-0.423379 -0.314139 0.401785 0 255 0
0.132590 -0.073222 0.347154 0 255 0
-0.199963 -0.102961 0.144965 0 255 0
-0.143524 -0.029217 -0.430841 0 255 0
-0.201021 0.025383 0.256637 0 255 0
-0.001881 0.077599 0.432795 0 255 0
-0.051785 0.121106 0.186623 0 255 0
-0.163830 -0.028552 0.462249 0 255 0
-0.043459 -0.371596 -0.185056 0 255 0
-0.020949 0.061201 0.371459 0 255 0
0.235193 0.377707 0.284623 0 255 0
0.088875 0.113021 0.197231 0 255 0
-0.000007 -0.121468 -0.152572 0 255 0
-0.366587 -0.004829 0.315449 0 255 0
0.057406 -0.116892 0.184774 0 255 0
0.006719 0.083702 0.459816 0 255 0
-0.052035 0.116174 0.197592 0 255 0
-0.185958 -0.017164 -0.386753 0 255 0
-0.136227 -0.126684 -0.439001 0 255 0
-0.205505 0.002770 0.304413 0 255 0
-0.084871 0.068366 -0.143779 0 255 0
0.089124 0.058420 0.360579 0 255 0
-0.013928 0.015762 0.473506 0 255 0
0.025691 0.082801 0.304729 0 255 0
-0.205353 -0.051278 0.142344 0 255 0
-0.084338 -0.099630 0.401957 0 255 0
0.193573 -0.015527 0.210245 0 255 0
-0.023845 0.042520 -0.203175 0 255 0
0.107376 -0.111736 0.341683 0 255 0
-0.476841 -0.408404 0.112700 0 255 0
0.018767 0.415447 0.086127 0 255 0
0.056851 0.077991 0.475645 0 255 0
0.179035 -0.119156 0.160008 0 255 0
-0.103485 -0.130746 -0.462683 0 255 0
0.194870 0.009419 -0.306281 0 255 0
0.093295 0.059823 0.466125 0 255 0
0.167603 -0.116618 0.100840 0 255 0
-0.086370 -0.093227 -0.491298 0 255 0
-0.016154 -0.115193 -0.018894 0 255 0
0.138058 -0.057763 -0.186925 0 255 0
-0.059984 0.134387 0.026485 0 255 0
0.264125 -0.220793 0.395198 0 255 0
-0.192780 -0.008826 0.091431 0 255 0
0.011466 -0.118210 -0.030150 0 255 0
-0.160139 -0.119313 0.420843 0 255 0
-0.193692 -0.027697 -0.075784 0 255 0
0.038641 -0.098491 0.491295 0 255 0
0.125629 -0.118044 0.472217 0 255 0
-0.200610 0.008485 0.193320 0 255 0
0.204214 -0.037479 0.364192 0 255 0
0.149941 -0.116391 -0.000437 0 255 0
0.063033 -0.119091 -0.089128 0 255 0
-0.090557 -0.122888 -0.154674 0 255 0
-0.053054 -0.112052 0.412730 0 255 0
0.061142 0.003095 0.482154 0 255 0
-0.061203 -0.125596 -0.200876 0 255 0
0.001175 -0.116151 -0.114343 0 255 0
0.135807 -0.042609 -0.458224 0 255 0
-0.192837 -0.028815 -0.147014 0 255 0
0.031761 0.134731 0.074633 0 255 0
-0.189575 -0.062747 0.050369 0 255 0
0.056983 -0.030749 -0.482076 0 255 0
0.184204 0.215907 -0.273423 0 255 0
-0.046852 -0.098531 0.437846 0 255 0
0.183976 -0.120017 0.002594 0 255 0
-0.099267 0.059573 -0.137572 0 255 0
0.179641 -0.009495 0.188963 0 255 0
0.158319 0.043051 0.179107 0 255 0
0.149201 0.041755 -0.259408 0 255 0
0.194029 -0.024296 0.092384 0 255 0
-0.195150 0.246812 -0.222265 0 255 0
0.036409 -0.116285 0.261636 0 255 0
0.109066 0.024923 0.438491 0 255 0
-0.021558 0.071030 0.460187 0 255 0
0.162917 -0.006688 0.285123 0 255 0
-0.016377 -0.127443 -0.392177 0 255 0
-0.110283 0.039708 0.461952 0 255 0
0.038375 -0.101536 0.458109 0 255 0
0.114964 -0.114141 0.458038 0 255 0
0.495135 -0.192882 0.295240 0 255 0
-0.003917 -0.111623 0.277180 0 255 0
-0.106368 -0.110614 0.451220 0 255 0
0.171168 0.008031 0.392858 0 255 0
0.073817 0.133398 -0.007994 0 255 0
-0.111834 0.124302 -0.025905 0 255 0
0.092045 0.099562 0.241912 0 255 0
-0.097170 -0.124005 -0.398488 0 255 0
0.013175 -0.123310 -0.481777 0 255 0
-0.288304 0.362916 0.421011 0 255 0
0.432976 0.475862 0.052030 0 255 0
-0.041777 0.040946 0.438386 0 255 0
-0.164994 -0.056493 0.470223 0 255 0
-0.135738 0.063768 0.404045 0 255 0
-0.187282 -0.058522 0.424949 0 255 0
0.033260 -0.002691 -0.414018 0 255 0
0.010563 0.068048 0.347697 0 255 0
0.126691 0.112239 0.104640 0 255 0
-0.051720 -0.117059 -0.168346 0 255 0
-0.089529 -0.088001 0.429073 0 255 0
0.094355 -0.095413 -0.488454 0 255 0
0.148824 0.059111 0.164863 0 255 0
0.187880 -0.390940 0.274300 0 255 0
-0.211367 0.043283 -0.049473 0 255 0
-0.096629 -0.124338 -0.043932 0 255 0
0.021467 -0.117177 0.360190 0 255 0
-0.047839 0.094292 0.268633 0 255 0
0.118853 -0.046836 -0.297038 0 255 0
-0.037075 0.086572 -0.113715 0 255 0
-0.156960 0.034546 -0.328663 0 255 0
-0.282246 0.275599 0.329948 0 255 0
0.010334 0.003608 -0.401041 0 255 0
0.176544 -0.120119 0.139194 0 255 0
0.026491 0.079917 0.315868 0 255 0
-0.191366 -0.031493 0.118148 0 255 0
-0.042818 -0.130757 0.286456 0 255 0
-0.142279 -0.119472 0.134261 0 255 0
-0.103925 0.009230 0.465919 0 255 0
-0.147274 0.075553 0.163380 0 255 0
-0.029006 -0.114939 0.086581 0 255 0
0.212583 -0.012014 -0.486433 0 255 0
-0.073348 -0.114828 0.084686 0 255 0
-0.094844 0.068599 0.355096 0 255 0
0.237918 -0.406216 0.085775 0 255 0
-0.012499 0.140354 0.034238 0 255 0
-0.063347 -0.116446 -0.220147 0 255 0
-0.485285 0.472550 0.491865 0 255 0
0.191493 -0.040199 -0.356399 0 255 0
-0.175037 0.023395 -0.306179 0 255 0
-0.070064 0.003840 -0.401001 0 255 0
0.143067 -0.041582 -0.191622 0 255 0
0.192939 0.011069 -0.170421 0 255 0
0.090463 -0.094950 -0.304011 0 255 0
0.047920 0.315890 -0.458521 0 255 0
0.011713 0.036473 -0.273940 0 255 0
0.063652 -0.078338 -0.469192 0 255 0
0.029691 0.102810 0.240448 0 255 0
0.190530 -0.064225 -0.041340 0 255 0
-0.162652 0.050036 -0.076496 0 255 0
0.040544 -0.114979 -0.134329 0 255 0
-0.133658 0.088975 0.188042 0 255 0
-0.171207 -0.140929 0.353411 0 255 0
-0.084728 -0.017377 -0.447555 0 255 0
0.112751 -0.123003 -0.460320 0 255 0
0.048175 -0.014691 -0.441134 0 255 0
-0.001653 0.035474 -0.290007 0 255 0
-0.086794 -0.068177 -0.485254 0 255 0
-0.102539 0.125682 0.128285 0 255 0
0.159444 -0.073025 0.350339 0 255 0
0.487455 0.356832 -0.420161 0 255 0
0.386724 -0.461181 0.372756 0 255 0
-0.160817 0.043456 0.214388 0 255 0
-0.103032 0.076322 0.410257 0 255 0
-0.066133 0.309190 -0.078628 0 255 0
0.364933 -0.411742 -0.427567 0 255 0
0.040980 0.138056 0.097794 0 255 0
0.010839 0.076910 0.475489 0 255 0
0.191419 0.003309 0.355153 0 255 0
-0.187221 -0.121564 0.119842 0 255 0
-0.155048 0.060348 -0.043894 0 255 0
0.190210 -0.043471 -0.133039 0 255 0
-0.146030 -0.009294 0.267018 0 255 0
-0.125535 0.003578 0.457391 0 255 0
-0.090960 0.118794 0.166334 0 255 0
-0.205356 -0.062491 0.167041 0 255 0
0.013781 -0.100654 0.461656 0 255 0
-0.036991 -0.124082 -0.354229 0 255 0
0.163659 -0.042821 0.194097 0 255 0
-0.191113 -0.120055 0.360550 0 255 0
-0.256865 -0.334480 0.280866 0 255 0
0.159773 0.062207 0.017536 0 255 0
-0.004888 0.100285 0.252443 0 255 0
-0.081961 0.105863 0.247878 0 255 0
-0.136475 0.460019 0.429113 0 255 0
-0.373116 -0.064955 0.412778 0 255 0
-0.179961 -0.496455 0.475848 0 255 0
-0.048643 -0.118381 -0.256822 0 255 0
0.418805 -0.189222 -0.210841 0 255 0
0.055449 0.079709 0.442615 0 255 0
0.063119 0.143552 0.480296 0 255 0
0.110961 0.031789 -0.283217 0 255 0
-0.152397 -0.089103 0.379040 0 255 0
0.494442 -0.459589 -0.255285 0 255 0
0.083854 -0.109603 -0.487523 0 255 0
0.068165 0.427454 -0.042308 0 255 0
-0.050547 -0.117493 -0.082062 0 255 0
-0.067903 -0.112685 0.340245 0 255 0
0.032759 0.033674 -0.292667 0 255 0
-0.132161 -0.049274 0.334628 0 255 0
0.126771 0.041338 0.372243 0 255 0
0.168449 0.050298 0.065804 0 255 0
0.072154 -0.118643 0.073889 0 255 0
0.007779 -0.115938 -0.150398 0 255 0
-0.233979 -0.346810 -0.404124 0 255 0
0.056422 0.132162 -0.013012 0 255 0
0.054186 -0.118195 -0.318536 0 255 0
-0.148775 0.068930 0.407970 0 255 0
0.101691 0.069601 -0.115499 0 255 0
0.168663 -0.047836 0.451418 0 255 0
-0.142685 0.042556 0.338331 0 255 0
-0.097958 0.082581 0.470488 0 255 0
0.002742 -0.122855 0.031724 0 255 0
0.035277 0.119672 0.183962 0 255 0
0.024752 -0.118816 0.151944 0 255 0
-0.048195 0.079168 0.484136 0 255 0
0.457912 0.439898 -0.369800 0 255 0
0.142912 0.005382 0.453622 0 255 0
0.060641 -0.116811 0.300047 0 255 0
-0.093808 -0.005806 0.481802 0 255 0
-0.093101 -0.117778 0.018133 0 255 0
-0.048681 0.044390 0.484566 0 255 0
-0.062749 -0.093186 -0.282015 0 255 0
-0.202631 0.308452 -0.161835 0 255 0
-0.081479 -0.106651 -0.477631 0 255 0
-0.109062 0.005357 0.465718 0 255 0
-0.397925 0.147164 0.048787 0 255 0
0.044133 0.097002 -0.087047 0 255 0
0.163031 -0.117256 0.149576 0 255 0
-0.051603 -0.118105 -0.071133 0 255 0
0.101090 -0.121900 0.331910 0 255 0
0.154231 0.036540 -0.269037 0 255 0
0.192409 -0.089611 0.008153 0 255 0
0.005962 0.096358 0.282497 0 255 0
-0.154573 0.066384 0.013709 0 255 0
-0.093376 -0.108903 0.358631 0 255 0
-0.152926 0.049074 0.216574 0 255 0
0.109432 -0.080618 -0.464984 0 255 0
0.142122 -0.118067 -0.088932 0 255 0
-0.202631 -0.010555 0.339466 0 255 0
0.103450 0.004559 0.467226 0 255 0
-0.454920 -0.086872 0.311739 0 255 0
0.106668 0.029249 0.440678 0 255 0
0.046727 0.134593 0.052664 0 255 0
-0.154320 0.000640 0.437058 0 255 0
0.001452 0.096030 -0.095372 0 255 0
0.042049 -0.117367 0.142348 0 255 0
-0.082138 0.088404 -0.096875 0 255 0
-0.123817 0.006595 -0.390808 0 255 0
-0.024696 0.026097 -0.329721 0 255 0
0.012569 -0.115831 -0.004947 0 255 0
-0.194243 -0.001639 -0.051538 0 255 0
0.139402 0.041203 -0.220094 0 255 0
0.209126 -0.105086 0.164253 0 255 0
-0.061155 0.010465 -0.375843 0 255 0
0.118687 -0.124012 -0.386140 0 255 0
0.026756 0.044434 -0.225427 0 255 0
-0.182146 -0.052481 -0.329873 0 255 0
0.015866 -0.118751 -0.446889 0 255 0
-0.157433 -0.246195 -0.249307 0 255 0
0.214467 -0.057126 0.348331 0 255 0
0.036715 -0.026484 0.508302 0 255 0
0.377527 -0.374582 -0.156005 0 255 0
0.012519 -0.116811 -0.177360 0 255 0
0.176015 0.032719 -0.166565 0 255 0
-0.112593 0.058548 0.379782 0 255 0
0.173495 -0.057673 -0.340086 0 255 0
-0.192900 -0.101275 -0.165612 0 255 0
-0.154879 -0.102679 0.181305 0 255 0
0.177574 0.030833 0.198843 0 255 0
-0.043670 0.068749 -0.139832 0 255 0
0.042548 -0.117237 -0.270297 0 255 0
0.029599 -0.116881 0.087261 0 255 0
0.254046 0.186371 -0.257597 0 255 0
0.188444 -0.005158 -0.341811 0 255 0
-0.187452 -0.127230 0.354130 0 255 0
-0.022989 -0.116974 -0.112222 0 255 0
-0.112589 -0.117371 -0.160705 0 255 0
-0.178339 0.026736 0.049123 0 255 0
-0.190033 -0.113641 0.180834 0 255 0
-0.260886 -0.029995 0.226428 0 255 0
0.026647 -0.118183 0.319542 0 255 0
-0.144042 -0.003719 -0.396914 0 255 0
0.025642 -0.113919 0.199291 0 255 0
-0.181882 -0.019179 -0.374240 0 255 0
0.106331 -0.111339 0.482356 0 255 0
0.143806 -0.097346 0.355141 0 255 0
0.084046 -0.110106 0.252854 0 255 0
0.026562 0.144269 -0.260223 0 255 0
0.163076 -0.064409 -0.344269 0 255 0
-0.193294 0.034267 0.249511 0 255 0
-0.129771 -0.111291 0.262968 0 255 0
0.097805 0.057114 0.364848 0 255 0
0.017612 0.123935 0.160881 0 255 0
0.085817 0.041005 0.481874 0 255 0
0.139491 0.097527 0.014232 0 255 0
-0.119735 -0.037783 -0.463281 0 255 0
-0.147399 -0.073145 0.200129 0 255 0
0.154625 0.052745 -0.124745 0 255 0
-0.062436 -0.102175 0.444532 0 255 0
-0.167317 0.018723 -0.335074 0 255 0
0.154529 -0.118357 0.039434 0 255 0
-0.035104 0.085767 0.309171 0 255 0
-0.121101 -0.092776 0.486757 0 255 0
0.100568 -0.120168 -0.426730 0 255 0
-0.059873 -0.122585 -0.292962 0 255 0
0.060653 -0.116237 0.365449 0 255 0
0.148933 0.050764 0.241010 0 255 0
0.035116 0.044983 0.473017 0 255 0
0.012562 -0.110407 0.439042 0 255 0
0.116466 -0.047828 -0.256302 0 255 0
0.022795 -0.115333 -0.291787 0 255 0
0.045640 0.194648 -0.236683 0 255 0
0.143937 -0.121321 0.065601 0 255 0
0.255595 -0.118100 0.455324 0 255 0
0.473489 0.032687 0.304652 0 255 0
-0.060625 0.091760 0.288318 0 255 0
0.061018 -0.018126 0.490918 0 255 0
-0.156559 0.046937 0.116602 0 255 0
-0.128773 0.008329 -0.389181 0 255 0
0.034752 0.026883 -0.349962 0 255 0
-0.172155 -0.117673 -0.171488 0 255 0
-0.118718 0.075597 0.302693 0 255 0
0.148805 -0.129729 0.421057 0 255 0
0.190199 -0.132319 -0.341545 0 255 0
-0.048040 0.311336 0.268066 0 255 0
-0.150533 0.054199 0.263055 0 255 0
-0.026927 0.045166 -0.181566 0 255 0
0.029341 -0.093369 -0.465603 0 255 0
0.202918 -0.018294 -0.121585 0 255 0
-0.103070 -0.115887 0.161036 0 255 0
-0.277497 -0.226343 0.442843 0 255 0
-0.215585 -0.447900 -0.020409 0 255 0
-0.139421 -0.028547 0.311955 0 255 0
-0.015821 -0.115265 0.485315 0 255 0
0.194225 -0.034744 -0.181357 0 255 0
-0.033100 0.089624 -0.100998 0 255 0
-0.003577 -0.013677 -0.457609 0 255 0
-0.069207 0.002272 -0.399342 0 255 0
-0.040699 -0.121135 -0.363720 0 255 0
-0.127733 0.031026 -0.299212 0 255 0
0.148628 0.049220 0.249998 0 255 0
0.155594 -0.129618 -0.448495 0 255 0
0.069795 -0.126943 -0.484974 0 255 0
0.065299 0.046644 -0.183970 0 255 0
0.196223 0.013743 -0.250269 0 255 0
-0.116343 0.032967 -0.250052 0 255 0
0.194232 -0.061591 0.118812 0 255 0
0.097908 -0.123282 -0.360974 0 255 0
-0.285259 -0.149701 -0.369304 0 255 0
0.048202 -0.118595 -0.180414 0 255 0
-0.120569 0.038731 -0.206695 0 255 0
-0.192242 0.009483 -0.098978 0 255 0
0.108452 -0.007346 0.476502 0 255 0
-0.163550 -0.057346 0.342706 0 255 0
-0.030377 -0.122018 -0.389200 0 255 0
0.489030 -0.262917 0.456501 0 255 0
-0.081472 -0.108133 -0.328879 0 255 0
0.090037 -0.024892 -0.452978 0 255 0
-0.081320 -0.060694 -0.488834 0 255 0
0.119616 -0.116346 0.272261 0 255 0
0.199698 -0.076746 0.384013 0 255 0
0.018730 0.038507 0.433740 0 255 0
0.184760 -0.022943 0.402385 0 255 0
0.045162 -0.120724 -0.221169 0 255 0
0.015846 -0.100056 0.447848 0 255 0
-0.193270 -0.097877 -0.062338 0 255 0
0.140782 -0.212597 -0.270112 0 255 0
0.086117 -0.091458 -0.237758 0 255 0
-0.040230 -0.047382 0.500539 0 255 0
-0.195196 -0.005028 0.119137 0 255 0
-0.038701 0.077942 0.326527 0 255 0
-0.061535 -0.117510 -0.185836 0 255 0
-0.020252 -0.123772 0.006229 0 255 0
0.183494 0.026944 0.206064 0 255 0
0.094991 -0.119318 0.139133 0 255 0
-0.067568 -0.126131 -0.390760 0 255 0
0.057561 -0.110944 0.416370 0 255 0
0.066531 0.100392 -0.079420 0 255 0
0.063506 -0.117266 0.331543 0 255 0
0.190107 -0.047282 -0.371058 0 255 0
0.139754 -0.115886 0.071982 0 255 0
-0.016806 -0.104231 0.466454 0 255 0
0.215600 0.044211 -0.063614 0 255 0
0.186031 -0.115562 -0.060094 0 255 0
0.106835 0.128706 0.013424 0 255 0
-0.074758 0.108206 0.218549 0 255 0
0.192155 -0.019707 0.048994 0 255 0
-0.030458 -0.122532 0.094095 0 255 0
0.201224 -0.008524 0.343106 0 255 0
-0.294987 0.181808 -0.187234 0 255 0
-0.193893 0.026600 -0.187984 0 255 0
-0.097708 -0.125581 -0.397929 0 255 0
0.146437 0.094781 -0.019995 0 255 0
-0.082783 0.445408 0.284172 0 255 0
-0.195040 -0.018165 -0.230333 0 255 0
0.047391 -0.119266 0.364829 0 255 0
-0.023227 0.026641 -0.339159 0 255 0
-0.085306 -0.112859 -0.179393 0 255 0
0.029603 -0.109102 0.393527 0 255 0
0.033181 -0.015227 -0.444559 0 255 0
0.160485 0.089222 -0.050341 0 255 0
0.176056 -0.116331 -0.001191 0 255 0
-0.007261 -0.013850 0.495573 0 255 0
-0.078309 0.021734 0.470966 0 255 0
-0.038404 0.048710 -0.193756 0 255 0
-0.194100 -0.015771 0.026065 0 255 0
-0.196327 0.015274 -0.219990 0 255 0
0.188478 -0.066725 -0.051210 0 255 0
0.026652 0.125850 0.205414 0 255 0
-0.049468 -0.115589 -0.103282 0 255 0
0.178906 -0.031263 -0.326112 0 255 0
0.195677 -0.098587 0.127829 0 255 0
-0.023724 -0.128293 -0.343644 0 255 0
0.094855 0.079042 0.463878 0 255 0
-0.130805 0.099027 0.143355 0 255 0
0.004086 0.092692 -0.094417 0 255 0
0.163452 0.004417 0.424854 0 255 0
0.063588 0.047673 0.406798 0 255 0
-0.180835 -0.036025 0.229325 0 255 0
-0.012442 -0.460983 -0.188059 0 255 0
-0.108002 0.040137 -0.225288 0 255 0
-0.071418 0.019399 -0.353852 0 255 0
0.188338 -0.087987 -0.378047 0 255 0
-0.180126 -0.034342 0.440220 0 255 0
0.122717 -0.110938 0.353133 0 255 0
0.123789 -0.114765 -0.147511 0 255 0
0.168425 0.036333 0.159693 0 255 0
0.217987 -0.323202 0.038979 0 255 0
-0.192862 -0.080391 -0.350593 0 255 0
0.078787 0.129209 -0.009400 0 255 0
0.189650 -0.057439 -0.416556 0 255 0
0.072632 -0.034255 -0.483424 0 255 0
0.177315 -0.118347 0.068809 0 255 0
-0.011810 0.143171 -0.492311 0 255 0
0.422522 0.393108 -0.177439 0 255 0
-0.183377 -0.129278 -0.135117 0 255 0
-0.087794 -0.114928 0.200856 0 255 0
-0.206463 0.015862 0.276967 0 255 0
-0.250214 -0.072799 0.005056 0 255 0
0.101160 -0.118811 0.122743 0 255 0
-0.440265 -0.200008 0.243222 0 255 0
-0.091727 -0.112841 0.327514 0 255 0
0.429867 0.265182 -0.186942 0 255 0
-0.204911 -0.026475 0.352354 0 255 0
-0.024731 -0.028037 0.502478 0 255 0
0.196554 -0.013370 0.135591 0 255 0
-0.081121 0.085548 0.291014 0 255 0
0.276910 0.204998 -0.191608 0 255 0
0.064134 -0.125620 -0.350174 0 255 0
0.102589 -0.120747 0.127324 0 255 0
0.050672 0.084349 0.440784 0 255 0
0.008129 -0.110922 0.486025 0 255 0
0.081808 0.082354 0.424069 0 255 0
0.188615 -0.123513 -0.405852 0 255 0
-0.169556 -0.052477 -0.186506 0 255 0
-0.027993 0.041578 -0.234638 0 255 0
0.195036 -0.027462 0.003882 0 255 0
0.122079 0.102574 0.204317 0 255 0
0.183973 0.021463 -0.189329 0 255 0
0.174154 -0.020834 0.318307 0 255 0
-0.168116 -0.043688 -0.436291 0 255 0
0.274776 0.402965 -0.433669 0 255 0
0.011855 0.045519 -0.188651 0 255 0
0.104508 0.056946 0.430154 0 255 0
-0.188008 0.012925 -0.091128 0 255 0
0.028851 0.101739 0.257862 0 255 0
0.113602 -0.056457 -0.328118 0 255 0
0.095403 0.077634 -0.121522 0 255 0
0.109605 -0.118124 -0.044894 0 255 0
0.359087 0.373371 -0.471344 0 255 0
-0.019547 -0.107840 0.405376 0 255 0
-0.466538 0.045231 0.296552 0 255 0
-0.179898 -0.011235 -0.387983 0 255 0
0.064100 -0.116417 0.344479 0 255 0
-0.038329 -0.117716 -0.123065 0 255 0
0.146525 0.077607 -0.012355 0 255 0
0.191918 -0.024107 -0.347748 0 255 0
-0.162046 0.044569 -0.013316 0 255 0
0.181156 0.026423 0.011633 0 255 0
0.114448 0.111666 0.173339 0 255 0
0.064122 0.138947 0.063362 0 255 0
-0.028716 0.136118 0.104390 0 255 0
-0.105287 -0.115707 0.020562 0 255 0
0.156540 -0.087426 -0.426493 0 255 0
-0.078874 -0.118942 -0.017074 0 255 0
-0.189354 -0.124156 0.079539 0 255 0
-0.071231 0.092282 -0.097850 0 255 0
0.120723 -0.002636 -0.276568 0 255 0
-0.031698 -0.127501 -0.483220 0 255 0
-0.014905 0.010639 0.487788 0 255 0
-0.136984 -0.117178 0.188242 0 255 0
0.009415 -0.057711 0.485016 0 255 0
0.204092 -0.159875 0.402137 0 255 0
0.082647 -0.118762 -0.094525 0 255 0
-0.192849 -0.037122 -0.022078 0 255 0
0.088880 -0.110902 0.471910 0 255 0
-0.082131 0.079229 -0.134315 0 255 0
-0.173441 0.038117 0.217355 0 255 0
-0.189224 -0.067907 0.062206 0 255 0
-0.050515 -0.002179 0.484224 0 255 0
0.102531 0.055475 -0.145721 0 255 0
0.025142 0.027083 -0.328572 0 255 0
-0.084853 -0.117733 0.155703 0 255 0
-0.191516 -0.106345 -0.032308 0 255 0
-0.127047 0.076635 -0.111403 0 255 0
-0.037759 0.083563 0.300582 0 255 0
-0.194299 -0.068602 -0.088683 0 255 0
0.387067 -0.307804 -0.252234 0 255 0
0.174156 -0.061620 -0.337896 0 255 0
-0.026086 0.135754 0.049383 0 255 0
0.041588 -0.103468 0.373696 0 255 0
-0.192902 -0.004099 0.004587 0 255 0
0.161790 0.037932 0.233339 0 255 0
0.188903 0.009091 0.166477 0 255 0
-0.016691 -0.320991 0.460869 0 255 0
0.197101 -0.076008 -0.024430 0 255 0
-0.046594 -0.115667 -0.254238 0 255 0
-0.075477 -0.110746 0.421729 0 255 0
0.197395 -0.026989 -0.203149 0 255 0
-0.185941 0.055227 -0.085418 0 255 0
-0.001205 -0.117900 -0.122330 0 255 0
0.089115 -0.020241 -0.460543 0 255 0
0.071574 0.147819 0.058971 0 255 0
0.117732 0.302706 -0.226623 0 255 0
0.010386 0.138188 0.025837 0 255 0
0.057924 -0.115590 0.276440 0 255 0
-0.014399 0.075342 -0.133786 0 255 0
-0.078125 0.121120 0.190937 0 255 0
-0.149575 -0.017573 -0.424724 0 255 0
0.073458 0.126347 0.166045 0 255 0
0.083908 0.076909 0.429204 0 255 0
0.419905 0.155141 -0.035056 0 255 0
-0.186933 -0.100209 -0.403312 0 255 0
-0.096195 -0.027812 -0.458467 0 255 0
-0.028939 0.076647 0.488357 0 255 0
0.294323 -0.394032 0.378963 0 255 0
0.174915 0.013725 0.386425 0 255 0
0.422611 0.044240 -0.354810 0 255 0
-0.095513 -0.357182 0.354901 0 255 0
-0.137584 -0.013478 0.472357 0 255 0
-0.178189 -0.117013 -0.137840 0 255 0
-0.014213 -0.115855 -0.002270 0 255 0
0.073187 0.078398 0.325230 0 255 0
0.034940 -0.122038 -0.415291 0 255 0
-0.262304 0.441224 0.150706 0 255 0
0.088877 -0.113386 0.256987 0 255 0
0.165524 -0.120627 -0.139861 0 255 0
0.206066 -0.002653 0.222173 0 255 0
0.065909 -0.082716 0.492305 0 255 0
0.199517 -0.082425 0.130149 0 255 0
-0.046481 -0.112419 0.367688 0 255 0
-0.261875 0.295283 -0.101550 0 255 0
0.098612 0.000528 -0.392086 0 255 0
-0.357070 0.268581 0.251135 0 255 0
-0.204655 -0.072731 0.361134 0 255 0
-0.190401 -0.077291 -0.026669 0 255 0
-0.193579 0.030595 0.266300 0 255 0
0.323070 -0.259454 0.158345 0 255 0
-0.182906 0.023963 0.014737 0 255 0
-0.191289 -0.112904 -0.146317 0 255 0
0.182608 -0.026614 -0.382269 0 255 0
0.234877 0.317580 -0.036526 0 255 0
-0.123070 0.125437 0.139571 0 255 0
-0.024231 -0.109023 0.363554 0 255 0
-0.207553 -0.026052 0.190305 0 255 0
-0.047849 0.127900 -0.023718 0 255 0
-0.185567 -0.067252 -0.405929 0 255 0
0.119435 -0.371555 -0.395700 0 255 0
-0.250860 -0.321617 -0.163450 0 255 0
0.122838 -0.081895 0.469784 0 255 0
0.148658 0.047937 0.390600 0 255 0
0.011129 0.493475 -0.396870 0 255 0
0.088445 0.012588 -0.350619 0 255 0
-0.191657 -0.053651 0.401249 0 255 0
0.142269 0.101823 0.007726 0 255 0
-0.116470 -0.019698 -0.256938 0 255 0
-0.135744 -0.113183 0.468572 0 255 0
-0.208794 0.014624 0.236347 0 255 0
-0.100361 -0.116973 0.314543 0 255 0
-0.116700 -0.036386 -0.294387 0 255 0
0.100314 -0.118055 0.097579 0 255 0
0.101953 0.416553 -0.070565 0 255 0
0.068053 -0.121518 0.017146 0 255 0
-0.139269 0.102810 0.009405 0 255 0
0.185856 -0.440968 0.258389 0 255 0
-0.148540 0.061649 0.196125 0 255 0
0.102211 -0.013383 -0.426101 0 255 0
-0.086525 -0.032629 -0.482523 0 255 0
0.057280 -0.025704 -0.461498 0 255 0
-0.252810 -0.482887 -0.298080 0 255 0
0.117385 0.124897 0.068996 0 255 0
0.110388 -0.236736 -0.376885 0 255 0
0.272000 0.159619 -0.392971 0 255 0
0.186861 -0.111333 -0.013309 0 255 0
-0.086997 0.221158 0.227035 0 255 0
0.194678 -0.002955 -0.209736 0 255 0
0.078063 -0.097052 -0.222913 0 255 0
-0.288541 0.358062 0.154736 0 255 0
0.148308 -0.119827 -0.021102 0 255 0
-0.116921 0.058109 0.345929 0 255 0
0.130633 -0.105313 0.328883 0 255 0
0.040878 0.002993 -0.411468 0 255 0
0.117073 -0.041336 -0.210339 0 255 0
-0.484481 0.438298 0.269266 0 255 0
0.006501 0.136694 0.025969 0 255 0
-0.162636 -0.303277 0.336873 0 255 0
-0.147175 -0.055721 -0.445142 0 255 0
-0.290338 -0.134467 -0.404147 0 255 0
0.113458 0.113980 0.183005 0 255 0
0.179693 -0.000220 0.270807 0 255 0
-0.191222 -0.044137 -0.085644 0 255 0
0.044966 -0.119435 -0.048123 0 255 0
-0.482355 -0.233797 -0.137225 0 255 0
0.003083 -0.117844 -0.013399 0 255 0
0.195412 0.002379 -0.232369 0 255 0
-0.019530 -0.114732 0.192082 0 255 0
0.058338 0.081796 0.477729 0 255 0
-0.161337 -0.055098 -0.445920 0 255 0
0.197552 -0.115244 0.180149 0 255 0
0.078472 0.049025 -0.171528 0 255 0
-0.206961 -0.498339 0.329189 0 255 0
0.083613 0.092653 0.263034 0 255 0
-0.486847 0.036299 0.049839 0 255 0
0.198073 -0.057192 0.038327 0 255 0
-0.175848 -0.116951 0.010999 0 255 0
0.117575 0.076791 0.462721 0 255 0
0.197929 -0.069930 -0.097792 0 255 0
0.131773 -0.098196 0.262677 0 255 0
-0.106715 0.007155 -0.378553 0 255 0
-0.021895 0.376142 -0.095935 0 255 0
0.266886 0.356140 -0.357610 0 255 0
0.359005 -0.118150 0.289214 0 255 0
-0.019558 -0.114266 -0.326170 0 255 0
0.076665 0.008126 -0.393224 0 255 0
-0.188270 0.018664 0.036730 0 255 0
-0.130041 -0.085042 0.262523 0 255 0
0.106449 0.069635 -0.128105 0 255 0
0.102780 0.011555 0.460793 0 255 0
-0.188812 0.038835 0.224870 0 255 0
0.425064 0.281503 0.203478 0 255 0
-0.037120 0.102525 -0.082281 0 255 0
0.135365 0.022321 0.421694 0 255 0
-0.195089 -0.088054 0.016302 0 255 0
0.025734 -0.233581 0.422844 0 255 0
-0.088051 0.139780 0.054091 0 255 0
0.069746 -0.110615 0.424813 0 255 0
0.189897 -0.082911 -0.396148 0 255 0
0.110140 -0.122587 -0.439978 0 255 0
-0.139921 -0.016255 0.279976 0 255 0
0.046785 -0.116348 -0.336791 0 255 0
-0.198922 0.003484 0.332218 0 255 0
-0.210463 0.057320 -0.067608 0 255 0
0.073618 0.126535 0.166298 0 255 0
0.149940 0.084282 0.052954 0 255 0
-0.149430 0.071387 0.138975 0 255 0
-0.020468 -0.097625 0.439775 0 255 0
-0.010522 0.099112 -0.087863 0 255 0
0.096443 0.101122 -0.065598 0 255 0
-0.140018 -0.034586 -0.449144 0 255 0
0.174105 -0.326498 -0.258517 0 255 0
-0.036807 -0.092621 -0.464786 0 255 0
0.052784 0.092940 0.293080 0 255 0
-0.041000 -0.114759 -0.028331 0 255 0
-0.060849 0.069212 0.335106 0 255 0
-0.192969 -0.011599 -0.084788 0 255 0
0.415018 -0.262438 -0.057092 0 255 0
0.061452 -0.070431 -0.491518 0 255 0
0.033028 -0.114987 0.135714 0 255 0
-0.244655 0.014148 0.192820 0 255 0
0.184186 0.410280 0.304739 0 255 0
0.116946 -0.053311 -0.188795 0 255 0
-0.101262 -0.119690 -0.143502 0 255 0
0.044899 -0.111155 0.465609 0 255 0
0.129189 -0.042987 -0.335740 0 255 0
-0.011332 -0.033714 -0.492120 0 255 0
0.035750 -0.103638 0.466535 0 255 0
0.106809 -0.115149 -0.146855 0 255 0
-0.095526 0.052868 -0.156435 0 255 0
0.480726 0.166490 -0.160368 0 255 0
0.093352 0.074693 0.418211 0 255 0
-0.124462 0.062563 0.429059 0 255 0
-0.140909 -0.127995 0.170908 0 255 0
-0.118497 0.115102 -0.032586 0 255 0
-0.041374 0.051115 0.463011 0 255 0
0.109789 0.136445 0.045155 0 255 0
-0.083018 0.130221 0.108750 0 255 0
0.147586 -0.123948 -0.363356 0 255 0
0.183644 -0.122407 -0.087462 0 255 0
0.138385 -0.127146 0.183379 0 255 0
-0.147572 -0.053985 0.214481 0 255 0
0.197198 -0.075794 -0.348443 0 255 0
-0.143066 -0.095755 0.376542 0 255 0
-0.120024 0.173878 0.015288 0 255 0
-0.489561 0.171606 0.091451 0 255 0
-0.151861 0.059830 0.115778 0 255 0
0.179517 -0.115390 -0.091900 0 255 0
-0.185485 -0.030331 -0.372261 0 255 0
-0.108774 0.073844 -0.121637 0 255 0
-0.403138 -0.035925 0.278774 0 255 0
-0.164939 0.039011 0.282583 0 255 0
0.008718 -0.114906 0.324998 0 255 0
0.018144 -0.121600 0.065927 0 255 0
0.192661 0.020098 0.137904 0 255 0
-0.428070 0.181491 -0.458475 0 255 0
0.196208 -0.018241 0.056362 0 255 0
0.175718 0.031215 0.008466 0 255 0
-0.189305 -0.016050 0.213766 0 255 0
0.077338 -0.088719 0.436026 0 255 0
-0.192805 -0.054087 -0.041989 0 255 0
0.198041 0.002665 -0.308770 0 255 0
-0.053412 -0.117450 0.034066 0 255 0
-0.136709 -0.107654 0.428370 0 255 0
0.077821 -0.119365 0.096139 0 255 0
-0.155105 0.426478 0.466729 0 255 0
-0.190683 -0.004795 -0.166009 0 255 0
-0.155638 -0.060409 0.344898 0 255 0
-0.094393 0.036712 0.465714 0 255 0
0.120377 -0.113013 0.249721 0 255 0
-0.194092 -0.066800 -0.022220 0 255 0
-0.118610 -0.025849 -0.217082 0 255 0
-0.098787 -0.006527 -0.426892 0 255 0
0.136999 -0.094551 0.377475 0 255 0
0.382264 -0.125739 -0.441234 0 255 0
-0.168409 -0.242311 0.083012 0 255 0
0.178040 0.026884 0.138083 0 255 0
0.166127 -0.073584 0.452805 0 255 0
-0.152770 -0.116925 -0.045627 0 255 0
0.120481 -0.109081 0.476628 0 255 0
0.146396 -0.054153 -0.447536 0 255 0
-0.022272 0.132070 0.131241 0 255 0
0.036785 0.037213 -0.255785 0 255 0
0.219870 -0.337716 0.497470 0 255 0
-0.139891 -0.047419 -0.338573 0 255 0
-0.022464 -0.130657 -0.487838 0 255 0
-0.316655 0.273535 -0.498580 0 255 0
0.057282 0.134012 0.038014 0 255 0
0.143068 -0.053058 0.262094 0 255 0
0.309705 -0.211243 -0.156790 0 255 0
0.156840 0.058951 0.188711 0 255 0
0.045617 -0.116990 0.169194 0 255 0
-0.128675 -0.108142 0.267905 0 255 0
-0.121287 0.116546 0.154799 0 255 0
-0.098233 -0.096889 -0.480046 0 255 0
-0.153315 0.035678 0.342917 0 255 0
-0.070539 0.414340 0.396662 0 255 0
0.010502 0.078996 0.479228 0 255 0
-0.040372 -0.123166 -0.431203 0 255 0
-0.197353 -0.021355 0.315726 0 255 0
0.179942 -0.072237 -0.414880 0 255 0
0.197385 -0.080980 0.080808 0 255 0
-0.132665 -0.076973 0.242531 0 255 0
0.140008 0.092236 0.105065 0 255 0
-0.355037 0.478796 -0.323606 0 255 0
0.198903 -0.013472 0.355653 0 255 0
0.021549 0.138060 0.080368 0 255 0
0.146548 -0.023192 0.316416 0 255 0
-0.070646 0.327182 -0.349108 0 255 0
-0.198904 0.027198 0.263708 0 255 0
-0.160135 -0.123977 0.406016 0 255 0
-0.056441 0.081617 -0.135381 0 255 0
-0.103689 0.467225 -0.446460 0 255 0
0.177060 0.040693 -0.168737 0 255 0
0.060690 -0.120662 0.026374 0 255 0
0.071693 -0.119674 0.211060 0 255 0
0.112147 0.019220 -0.325405 0 255 0
-0.145729 0.055476 0.398037 0 255 0
-0.070638 -0.118221 -0.160813 0 255 0
0.025820 -0.430638 -0.421651 0 255 0
0.170425 0.032714 -0.162675 0 255 0
0.266842 0.041664 -0.253255 0 255 0
-0.049758 -0.113779 -0.505597 0 255 0
-0.154744 0.076593 0.088064 0 255 0
-0.136477 0.030177 0.397458 0 255 0
0.095818 -0.130910 -0.376373 0 255 0
0.024020 -0.114740 -0.062548 0 255 0
0.038152 -0.101961 0.378751 0 255 0
-0.185860 0.062092 -0.074200 0 255 0
0.071503 0.036164 -0.252767 0 255 0
0.141226 -0.117399 0.093365 0 255 0
0.067939 0.117604 0.179960 0 255 0
-0.327278 -0.258483 -0.002989 0 255 0
0.035333 -0.123762 -0.447944 0 255 0
0.154115 -0.094833 -0.447248 0 255 0
-0.015966 0.139695 0.068353 0 255 0
0.164563 -0.050328 -0.333893 0 255 0
0.107467 -0.026215 0.502250 0 255 0
-0.112323 -0.117794 -0.012911 0 255 0
0.082331 0.027193 -0.303073 0 255 0
-0.002232 -0.111011 0.477037 0 255 0
0.418106 -0.354858 0.286490 0 255 0
0.194225 -0.066133 -0.008523 0 255 0
-0.196514 -0.005808 0.078798 0 255 0
-0.207179 -0.041387 0.166729 0 255 0
0.237401 -0.311668 -0.449341 0 255 0
0.079399 0.045270 -0.198640 0 255 0
0.203770 -0.017077 0.333287 0 255 0
-0.000770 0.018679 -0.368925 0 255 0
0.189260 0.026807 0.199929 0 255 0
0.019125 -0.121558 0.046055 0 255 0
0.139080 0.093819 -0.057177 0 255 0
-0.035485 -0.088238 -0.480824 0 255 0
-0.188854 0.012547 -0.232101 0 255 0
-0.014861 -0.096012 0.492534 0 255 0
0.019676 -0.119817 -0.061484 0 255 0
0.107963 -0.001115 0.468241 0 255 0
-0.190488 0.025626 -0.254582 0 255 0
0.164764 -0.141383 -0.325832 0 255 0
0.017203 0.138954 0.016437 0 255 0
-0.129609 -0.126104 -0.073933 0 255 0
-0.195900 -0.093951 0.106615 0 255 0
0.193278 -0.098218 0.056223 0 255 0
0.054194 -0.112191 0.339522 0 255 0
0.023768 0.085845 -0.105945 0 255 0
-0.133611 0.103787 -0.417392 0 255 0
-0.161731 0.011006 0.432877 0 255 0
-0.111086 0.401303 0.471760 0 255 0
0.060267 -0.117527 -0.309263 0 255 0
0.090951 0.130352 0.131333 0 255 0
0.011103 0.117963 0.190414 0 255 0
0.044123 0.141672 0.058678 0 255 0
0.075084 0.118378 0.188207 0 255 0
-0.447322 -0.170509 0.198887 0 255 0
0.022257 -0.039804 -0.494039 0 255 0
-0.073397 0.034066 -0.268530 0 255 0
0.169528 0.060230 -0.085971 0 255 0
0.039752 0.025153 -0.331053 0 255 0
0.051538 -0.116839 -0.140792 0 255 0
-0.168302 -0.003438 -0.259010 0 255 0
-0.020435 0.341986 -0.143632 0 255 0
-0.137586 -0.123411 -0.447647 0 255 0
0.168620 0.047960 -0.108086 0 255 0
-0.141123 -0.114368 0.180897 0 255 0
-0.314843 -0.124467 0.207811 0 255 0
-0.034329 -0.120905 -0.498321 0 255 0
-0.143429 -0.052547 0.489802 0 255 0
-0.097714 0.130908 0.052102 0 255 0
-0.118588 -0.084363 -0.453173 0 255 0
-0.229896 -0.138294 0.262742 0 255 0
-0.142676 0.082369 0.144818 0 255 0
0.187506 -0.089879 0.035618 0 255 0
0.179573 -0.082464 0.425504 0 255 0
-0.034549 0.052770 -0.162157 0 255 0
0.099932 -0.120927 0.362012 0 255 0
0.002468 -0.114609 0.203506 0 255 0
0.443419 0.102651 0.386740 0 255 0
-0.218926 -0.323959 -0.254339 0 255 0
-0.185761 -0.000694 -0.351659 0 255 0
-0.225589 -0.198711 -0.197687 0 255 0
-0.093679 -0.125147 -0.400118 0 255 0
-0.117141 -0.020278 -0.437676 0 255 0
0.188823 0.110286 -0.334286 0 255 0
0.017867 -0.112690 0.317115 0 255 0
-0.061835 -0.116740 -0.205912 0 255 0
-0.114112 -0.072138 -0.251868 0 255 0
-0.069848 0.084655 0.293515 0 255 0
-0.141797 0.134053 -0.358862 0 255 0
0.153005 0.036994 0.324619 0 255 0
0.181200 0.030610 0.117893 0 255 0
-0.197588 -0.004061 0.171894 0 255 0
0.151303 0.041541 0.287322 0 255 0
0.327095 0.253858 -0.397809 0 255 0
0.050094 -0.122033 0.228070 0 255 0
0.202922 -0.031334 0.352059 0 255 0
0.179290 -0.132416 -0.061728 0 255 0
0.363444 0.104989 -0.425757 0 255 0
-0.198973 -0.016193 -0.218959 0 255 0
0.191703 -0.032171 -0.073314 0 255 0
0.049697 0.097082 0.281203 0 255 0
-0.149652 0.056673 0.202984 0 255 0
0.319463 -0.138266 0.349228 0 255 0
0.020633 -0.111512 0.354216 0 255 0
0.055597 -0.131277 -0.482839 0 255 0
0.198220 -0.107933 0.037331 0 255 0
-0.043429 0.137347 -0.019755 0 255 0
0.194611 -0.077129 -0.152506 0 255 0
0.125011 0.024450 -0.337780 0 255 0
-0.194916 -0.018076 0.066233 0 255 0
0.116518 0.120584 -0.023045 0 255 0
0.176884 -0.032672 -0.406140 0 255 0
0.059770 -0.118278 0.125595 0 255 0
-0.210949 0.498291 0.427925 0 255 0
-0.102577 0.051754 0.383854 0 255 0
-0.170482 0.036299 0.224603 0 255 0
0.020541 -0.122152 -0.380798 0 255 0
0.472747 -0.346582 -0.049048 0 255 0
-0.100115 0.047980 0.400256 0 255 0
0.179962 -0.130433 -0.019467 0 255 0
-0.181643 -0.030422 -0.382628 0 255 0
-0.126571 -0.125699 -0.036929 0 255 0
0.183003 0.029844 -0.028297 0 255 0
0.280145 -0.398786 -0.024292 0 255 0
0.135845 -0.003349 -0.407986 0 255 0
0.146360 -0.077073 0.181584 0 255 0
-0.139202 0.087934 0.138549 0 255 0
0.195969 -0.005354 0.042958 0 255 0
-0.139464 -0.119502 -0.112875 0 255 0
0.144206 -0.117412 0.025630 0 255 0
0.119531 0.058018 -0.130530 0 255 0
-0.018688 0.049161 -0.209875 0 255 0
0.195647 -0.055452 0.383853 0 255 0
0.442740 0.373396 0.147174 0 255 0
-0.140054 0.099828 0.056693 0 255 0
0.031346 -0.116014 -0.036029 0 255 0
-0.321962 -0.228976 -0.452879 0 255 0
-0.061835 0.069472 -0.129666 0 255 0
0.196242 -0.070572 0.344633 0 255 0
0.118209 0.080712 0.283403 0 255 0
-0.077551 -0.023464 0.496820 0 255 0
0.089914 -0.116377 -0.129822 0 255 0
-0.008873 -0.010077 -0.462256 0 255 0
-0.116337 0.095640 -0.065166 0 255 0
0.189517 -0.096876 0.396507 0 255 0
-0.444699 -0.311438 -0.112148 0 255 0
-0.114470 0.045098 -0.452533 0 255 0
0.056111 -0.092711 -0.475442 0 255 0
0.113401 0.093986 -0.068681 0 255 0
0.100534 0.032882 -0.262153 0 255 0
-0.072720 0.042325 -0.221561 0 255 0
0.191994 -0.094623 -0.348354 0 255 0
0.131414 0.060398 0.443631 0 255 0
0.197769 -0.102817 0.358720 0 255 0
-0.198362 0.006946 -0.089052 0 255 0
0.098325 -0.108439 0.361251 0 255 0
0.116804 -0.116857 0.064542 0 255 0
0.084176 -0.102080 0.376738 0 255 0
0.175669 -0.016733 0.226529 0 255 0
0.055041 -0.115457 0.012883 0 255 0
0.028045 -0.120684 -0.189939 0 255 0
-0.060877 -0.121469 -0.416773 0 255 0
0.003962 -0.118285 0.015813 0 255 0
0.129851 0.039073 -0.205652 0 255 0
-0.358953 -0.292095 -0.256219 0 255 0
-0.074428 -0.024146 -0.461391 0 255 0
0.189660 -0.060618 -0.013331 0 255 0
-0.185745 0.036930 0.296252 0 255 0
-0.067341 -0.105929 0.377739 0 255 0
-0.033929 -0.119145 -0.106776 0 255 0
0.065314 -0.112682 0.279648 0 255 0
-0.190388 -0.111999 0.114630 0 255 0
0.061247 -0.248898 -0.166543 0 255 0
-0.153627 0.073935 -0.021847 0 255 0
-0.159656 0.030000 -0.286596 0 255 0
0.389871 0.367341 -0.022387 0 255 0
0.133124 -0.067362 0.477278 0 255 0
-0.034771 0.046385 -0.215459 0 255 0
0.202217 0.013694 0.259408 0 255 0
-0.156397 0.029416 -0.296809 0 255 0
0.193174 -0.079761 -0.070953 0 255 0
0.164483 0.003560 0.414616 0 255 0
0.180523 -0.116257 -0.300215 0 255 0
-0.054523 -0.113729 -0.333092 0 255 0
0.054687 -0.117192 0.477924 0 255 0
-0.038586 -0.116398 -0.273294 0 255 0
-0.094259 -0.111752 0.287263 0 255 0
0.156494 0.039791 0.321133 0 255 0
-0.175218 0.037075 -0.021297 0 255 0
-0.031811 -0.119015 0.218517 0 255 0
-0.126388 0.052233 -0.143086 0 255 0
-0.207683 0.357055 0.483699 0 255 0
0.074201 -0.102142 0.489182 0 255 0
0.133420 0.023369 -0.357998 0 255 0
0.124678 -0.068246 0.488981 0 255 0
-0.133066 0.111855 0.079907 0 255 0
-0.062376 -0.117559 0.057975 0 255 0
0.323335 0.337323 0.035637 0 255 0
0.189335 -0.068786 0.030957 0 255 0
0.076079 0.041907 -0.223241 0 255 0
-0.222226 -0.387109 -0.262990 0 255 0
-0.192680 0.010677 0.068039 0 255 0
0.155230 0.057958 0.170351 0 255 0
0.003020 0.059583 -0.159994 0 255 0
-0.385077 -0.002478 0.025315 0 255 0
-0.264720 -0.426221 -0.177533 0 255 0
-0.171624 0.033166 0.099492 0 255 0
0.085167 -0.037593 0.495823 0 255 0
-0.088067 0.134060 0.032449 0 255 0
-0.094831 -0.066694 0.499896 0 255 0
-0.045512 0.045873 0.477519 0 255 0
-0.075056 0.066523 0.337096 0 255 0
0.108157 0.043094 -0.205442 0 255 0
-0.051853 0.111648 0.210600 0 255 0
0.022613 -0.110314 0.355024 0 255 0
0.200093 0.018036 0.249907 0 255 0
-0.476682 -0.052495 0.106181 0 255 0
-0.116485 -0.050764 -0.299770 0 255 0
-0.143281 -0.016200 -0.226713 0 255 0
-0.171886 0.031751 0.117394 0 255 0
0.172776 0.033877 -0.041062 0 255 0
-0.085076 0.102628 0.250299 0 255 0
-0.063347 0.100879 0.242674 0 255 0
0.174912 -0.095712 0.425392 0 255 0
0.000759 0.108290 -0.077997 0 255 0
0.252762 0.359250 -0.334064 0 255 0
-0.155715 0.054632 0.005741 0 255 0
0.333769 0.415289 0.423793 0 255 0
-0.214586 -0.157628 0.427991 0 255 0
0.049207 -0.123708 0.029884 0 255 0
0.382997 -0.248393 0.190158 0 255 0
-0.013694 0.046057 -0.230511 0 255 0
0.087685 -0.119107 -0.132689 0 255 0
-0.095880 0.103836 -0.074376 0 255 0
-0.062195 -0.126568 -0.475132 0 255 0
0.151976 -0.079463 -0.438938 0 255 0
0.044681 0.097407 -0.096774 0 255 0
-0.141675 0.095084 -0.050856 0 255 0
-0.025458 0.039960 -0.264114 0 255 0
0.064992 0.087771 -0.108047 0 255 0
-0.078373 -0.112563 0.415052 0 255 0
0.098790 0.083560 0.439129 0 255 0
-0.184614 -0.093376 -0.126802 0 255 0
-0.328334 -0.326358 0.316017 0 255 0
-0.176462 -0.017019 0.419434 0 255 0
0.309170 -0.128534 0.279112 0 255 0
0.193151 -0.009987 0.046462 0 255 0
0.046969 0.114225 0.207998 0 255 0
0.058054 -0.115493 -0.056689 0 255 0
-0.043112 -0.121395 0.128107 0 255 0
0.353323 0.151549 0.014609 0 255 0
0.098624 0.035682 -0.275982 0 255 0
0.077227 0.004336 -0.384464 0 255 0
-0.078532 -0.117659 -0.247398 0 255 0
0.097010 0.005478 -0.385468 0 255 0
-0.157187 -0.453132 -0.169843 0 255 0
-0.310354 -0.201777 0.121504 0 255 0
0.379955 -0.037305 0.442169 0 255 0
-0.157410 0.035255 -0.334870 0 255 0
-0.195024 -0.061322 0.050246 0 255 0
0.056531 -0.113761 -0.496001 0 255 0
-0.191214 -0.000512 -0.035940 0 255 0
-0.182890 -0.108155 -0.188229 0 255 0
0.099020 -0.108298 -0.220585 0 255 0
0.037872 -0.136497 0.166079 0 255 0
0.068002 0.132770 0.086631 0 255 0
-0.497638 -0.327355 -0.492534 0 255 0
0.137746 0.093545 0.094616 0 255 0
0.217452 0.249854 -0.037127 0 255 0
0.080698 0.258665 0.104211 0 255 0
-0.121351 -0.096994 0.395378 0 255 0
-0.190572 -0.061932 -0.053055 0 255 0
-0.066807 -0.005110 -0.420185 0 255 0
0.070649 -0.031819 -0.470730 0 255 0
0.186454 0.020556 -0.042360 0 255 0
-0.169567 -0.035878 0.463190 0 255 0
-0.136801 -0.074025 0.271867 0 255 0
-0.192341 -0.038857 -0.353219 0 255 0
-0.082511 0.152757 0.409807 0 255 0
0.030309 -0.124734 -0.137227 0 255 0
0.045726 -0.128312 0.273289 0 255 0
-0.187965 -0.023772 0.397991 0 255 0
0.055255 -0.127271 -0.365860 0 255 0
-0.207026 -0.442785 -0.155028 0 255 0
-0.174808 0.038984 0.246074 0 255 0
0.056992 0.054780 -0.155732 0 255 0
-0.143208 -0.435050 -0.369480 0 255 0
-0.009511 0.106449 0.238860 0 255 0
-0.049444 0.426455 -0.216332 0 255 0
0.112628 -0.116429 0.105676 0 255 0
-0.492243 0.408288 -0.094773 0 255 0
-0.033671 0.019361 -0.348452 0 255 0
0.188038 0.030689 0.308326 0 255 0
0.118583 -0.114210 0.235237 0 255 0
0.095293 -0.113166 0.250799 0 255 0
-0.139013 0.108066 0.015749 0 255 0
-0.163005 0.063131 -0.081467 0 255 0
-0.016671 -0.415885 0.434837 0 255 0
-0.034007 0.134441 0.121011 0 255 0
-0.165645 0.040482 0.081306 0 255 0
0.195679 -0.046456 0.042264 0 255 0
-0.004289 -0.107466 -0.487043 0 255 0
0.192705 0.027155 0.289578 0 255 0
-0.181158 -0.126655 -0.375465 0 255 0
-0.144853 -0.039295 0.484345 0 255 0
-0.121595 0.106700 0.195512 0 255 0
0.159970 -0.034126 0.326124 0 255 0
-0.195208 -0.008933 -0.037824 0 255 0
-0.144097 0.026202 -0.323615 0 255 0
0.123963 0.046680 0.378477 0 255 0
0.189487 -0.127969 0.354368 0 255 0
0.064393 0.178749 0.014927 0 255 0
