ply
format ascii 1.0
element vertex 1304
property float x
property float y
property float z
property uchar red
property uchar green
property uchar blue
end_header
0.040228 -0.040203 0.479843 255 0 0
-0.189854 -0.156419 -0.088960 255 0 0
-0.152483 -0.170139 -0.178423 255 0 0
0.142462 -0.063375 0.462997 255 0 0
-0.146743 0.050841 0.367926 255 0 0
0.171328 0.008954 0.272029 255 0 0
-0.012806 -0.160228 0.410622 255 0 0
0.147354 -0.165658 0.220980 255 0 0
-0.179953 -0.069822 -0.356805 255 0 0
-0.133750 -0.171299 -0.423740 255 0 0
-0.143713 0.084592 0.153472 255 0 0
-0.191565 -0.136643 -0.000754 255 0 0
-0.178081 -0.061033 -0.327433 255 0 0
0.044086 0.024253 0.447663 255 0 0
-0.159216 -0.019591 -0.297579 255 0 0
-0.108965 -0.116158 0.490058 255 0 0
0.058998 0.099117 0.334002 255 0 0
-0.169508 0.032875 0.178218 255 0 0
-0.152732 -0.154265 0.445081 255 0 0
-0.135266 -0.160032 0.000866 255 0 0
-0.186767 -0.087645 0.257535 255 0 0
0.044751 -0.165904 0.317572 255 0 0
0.191729 -0.051540 -0.086931 255 0 0
0.122816 0.095794 0.278958 255 0 0
-0.012454 -0.161601 0.470701 255 0 0
-0.064298 -0.165298 0.161578 255 0 0
-0.149175 -0.115121 -0.458685 255 0 0
-0.193496 -0.096740 -0.080656 255 0 0
-0.157815 -0.013469 -0.237036 255 0 0
0.170875 -0.118919 -0.391578 255 0 0
0.160287 -0.009453 -0.273703 255 0 0
-0.084307 -0.164505 0.296715 255 0 0
-0.193887 -0.154605 -0.001434 255 0 0
-0.180166 -0.166637 0.231886 255 0 0
-0.090473 -0.167020 0.298980 255 0 0
0.172828 -0.052059 0.438930 255 0 0
0.189354 -0.100232 0.210553 255 0 0
-0.167089 0.011469 0.086337 255 0 0
-0.146621 0.049280 -0.031872 255 0 0
-0.131850 -0.015818 0.457740 255 0 0
-0.114700 -0.136153 0.282128 255 0 0
-0.160204 -0.169600 0.442912 255 0 0
-0.142638 -0.165622 -0.002783 255 0 0
-0.008374 0.042780 0.434338 255 0 0
0.068601 0.102429 0.331569 255 0 0
0.192252 -0.151110 0.216731 255 0 0
-0.152528 0.051632 -0.028572 255 0 0
0.045173 -0.173175 -0.190734 255 0 0
-0.086603 -0.071715 -0.469143 255 0 0
-0.060369 -0.167232 -0.221845 255 0 0
-0.074085 -0.164476 0.260214 255 0 0
-0.066167 -0.168211 -0.172142 255 0 0
-0.073648 -0.172982 -0.191181 255 0 0
-0.135986 -0.161541 0.234384 255 0 0
0.177541 -0.158304 0.175307 255 0 0
-0.182964 -0.054576 0.286370 255 0 0
0.098679 -0.157737 0.466243 255 0 0
0.135549 -0.125769 0.236867 255 0 0
0.445358 -0.346884 -0.104897 255 0 0
-0.177045 -0.061007 0.323736 255 0 0
-0.030830 0.115093 0.245776 255 0 0
-0.109464 -0.168632 0.197645 255 0 0
0.093676 0.096923 0.371427 255 0 0
-0.109584 -0.008648 -0.299627 255 0 0
0.138655 -0.170225 -0.397241 255 0 0
0.128158 -0.169931 -0.088363 255 0 0
0.189351 -0.170846 -0.050724 255 0 0
0.159900 0.034931 0.023259 255 0 0
-0.064929 -0.034660 -0.420227 255 0 0
0.002018 -0.171721 -0.177733 255 0 0
0.160152 0.041862 -0.023037 255 0 0
0.130902 -0.007982 0.455499 255 0 0
0.051958 -0.152180 0.453942 255 0 0
0.021290 0.115096 0.103082 255 0 0
-0.098023 -0.157714 0.429405 255 0 0
0.193141 -0.106562 -0.030477 255 0 0
-0.032712 -0.158417 0.431392 255 0 0
0.111239 -0.156131 -0.367941 255 0 0
-0.015479 -0.165516 0.224356 255 0 0
0.190724 -0.123490 0.223558 255 0 0
0.082253 -0.103060 0.493722 255 0 0
0.092965 -0.165133 0.321032 255 0 0
0.179327 -0.054967 -0.328343 255 0 0
-0.070626 -0.167874 -0.470215 255 0 0
0.176750 -0.131909 0.416238 255 0 0
-0.113207 -0.094315 0.493471 255 0 0
-0.179872 -0.060231 0.346315 255 0 0
0.186583 -0.026983 -0.088872 255 0 0
0.149754 0.064895 0.067260 255 0 0
-0.087602 -0.035014 0.476930 255 0 0
-0.189827 -0.057493 -0.114415 255 0 0
-0.111478 -0.125535 0.255782 255 0 0
-0.182302 -0.065385 0.284512 255 0 0
-0.153415 0.050673 -0.004311 255 0 0
0.110690 -0.137104 -0.253454 255 0 0
-0.184874 -0.082072 -0.151371 255 0 0
0.088976 -0.172437 -0.455270 255 0 0
0.063001 -0.080445 0.082918 255 0 0
0.112248 -0.105860 0.310673 255 0 0
-0.193538 -0.052963 0.350759 255 0 0
0.187937 -0.169914 -0.033696 255 0 0
0.123100 0.056631 -0.112592 255 0 0
-0.190571 -0.081854 -0.332737 255 0 0
0.034776 0.094118 -0.060572 255 0 0
0.375483 -0.200265 -0.428634 255 0 0
-0.166139 -0.119143 0.431624 255 0 0
-0.168851 -0.004952 -0.198735 255 0 0
0.144044 -0.164569 -0.114768 255 0 0
0.195300 -0.074544 -0.062677 255 0 0
-0.437744 -0.488029 -0.200801 255 0 0
0.005906 -0.040794 0.478841 255 0 0
-0.024248 -0.161136 0.075612 255 0 0
-0.044751 -0.173555 -0.218388 255 0 0
-0.038343 -0.169209 -0.157856 255 0 0
0.024295 -0.154300 0.449376 255 0 0
0.168320 -0.052767 -0.390718 255 0 0
-0.194466 -0.075496 0.134452 255 0 0
0.106388 -0.013349 -0.308428 255 0 0
-0.124884 -0.165731 0.112822 255 0 0
0.029110 -0.158913 0.426938 255 0 0
0.076860 -0.155365 0.292427 255 0 0
-0.060749 -0.172938 -0.316878 255 0 0
-0.104694 0.105959 0.275554 255 0 0
0.009060 -0.160569 0.400825 255 0 0
0.178412 -0.162103 0.405075 255 0 0
-0.148626 -0.027054 -0.365011 255 0 0
-0.103584 0.103421 0.291434 255 0 0
-0.178626 -0.017797 0.233349 255 0 0
0.069980 -0.111160 0.493985 255 0 0
0.162465 -0.162971 -0.063032 255 0 0
0.130493 0.093605 0.280979 255 0 0
0.111495 -0.140371 -0.452441 255 0 0
-0.045380 -0.024031 -0.388799 255 0 0
0.048394 -0.166960 0.290040 255 0 0
-0.109048 -0.146830 -0.208102 255 0 0
0.188986 -0.077693 0.030638 255 0 0
0.097898 0.075313 -0.082295 255 0 0
-0.081607 -0.173632 -0.263604 255 0 0
0.049482 -0.150068 0.454307 255 0 0
0.060814 -0.004913 -0.262242 255 0 0
0.087562 -0.129514 -0.473325 255 0 0
0.187192 -0.014337 0.125264 255 0 0
0.141135 0.054248 -0.089300 255 0 0
0.115645 0.113229 0.146495 255 0 0
0.163198 -0.118572 -0.437318 255 0 0
0.065747 0.113916 0.035748 255 0 0
-0.005284 -0.050402 -0.461117 255 0 0
0.111171 -0.078470 0.324221 255 0 0
-0.114373 -0.083721 0.326422 255 0 0
-0.174459 -0.060762 -0.222417 255 0 0
-0.050184 -0.168834 -0.300696 255 0 0
-0.065046 -0.149398 0.482556 255 0 0
0.019557 0.060578 -0.118578 255 0 0
0.192103 -0.102068 0.189984 255 0 0
0.136052 -0.165967 0.166867 255 0 0
0.052193 -0.174416 -0.391154 255 0 0
-0.181854 -0.019318 0.392007 255 0 0
0.172513 -0.112620 -0.394525 255 0 0
-0.164482 -0.019238 -0.220686 255 0 0
0.193740 -0.059960 -0.287045 255 0 0
-0.044286 -0.165156 0.029933 255 0 0
-0.106997 -0.050615 -0.310091 255 0 0
-0.192576 -0.061865 0.339427 255 0 0
0.108192 0.106043 0.198755 255 0 0
0.085197 -0.164161 -0.129758 255 0 0
-0.188954 -0.037801 0.076658 255 0 0
-0.107139 -0.109730 -0.360476 255 0 0
0.067262 0.008897 0.460212 255 0 0
-0.125421 -0.151702 -0.186435 255 0 0
0.164988 -0.061755 -0.437164 255 0 0
-0.125266 -0.170195 -0.117210 255 0 0
0.034739 -0.173936 -0.201461 255 0 0
-0.014892 -0.166998 0.462131 255 0 0
0.082511 0.035343 0.444322 255 0 0
-0.155994 -0.129604 -0.447754 255 0 0
0.179483 -0.014047 0.086860 255 0 0
0.003372 0.065216 0.420934 255 0 0
-0.163713 -0.052654 -0.409376 255 0 0
0.039839 -0.169244 -0.210462 255 0 0
-0.198151 -0.095985 0.251625 255 0 0
-0.259761 -0.351963 0.473960 255 0 0
0.101043 0.114732 0.209385 255 0 0
-0.122144 -0.045956 -0.442737 255 0 0
-0.188991 -0.168245 -0.146297 255 0 0
0.152041 -0.161780 0.421453 255 0 0
0.044688 0.108391 0.022922 255 0 0
0.042329 -0.154499 0.480691 255 0 0
0.049360 0.104182 0.382140 255 0 0
0.073721 0.054043 0.422011 255 0 0
-0.188897 -0.137366 -0.094578 255 0 0
-0.190482 -0.158449 0.179677 255 0 0
0.014091 -0.165880 0.302790 255 0 0
-0.381545 -0.254678 -0.206988 255 0 0
0.180119 -0.003504 0.017552 255 0 0
0.160918 0.031612 -0.066636 255 0 0
-0.106660 -0.005270 -0.227343 255 0 0
-0.081808 -0.137082 0.483991 255 0 0
0.186851 -0.107167 0.179082 255 0 0
0.133600 0.083867 0.167698 255 0 0
-0.195776 -0.109067 0.072718 255 0 0
0.012053 0.108156 0.328706 255 0 0
-0.024838 -0.134556 0.192914 255 0 0
0.118107 -0.091621 0.281120 255 0 0
0.108040 -0.167662 -0.173686 255 0 0
0.081714 0.010885 0.464922 255 0 0
0.012315 -0.017887 -0.368723 255 0 0
0.042774 0.119136 0.148997 255 0 0
0.138713 -0.168977 -0.025360 255 0 0
-0.170239 0.025938 0.097712 255 0 0
-0.177841 -0.068920 -0.341582 255 0 0
-0.157075 -0.108151 -0.457872 255 0 0
-0.057730 0.113664 0.088563 255 0 0
-0.151817 -0.025748 -0.377780 255 0 0
-0.014397 -0.082729 0.495022 255 0 0
-0.125727 0.090975 0.280111 255 0 0
-0.113787 -0.169666 -0.078871 255 0 0
0.182635 -0.002110 0.014245 255 0 0
-0.176539 -0.116357 -0.385838 255 0 0
-0.163197 -0.049529 0.298117 255 0 0
-0.049358 -0.159027 0.388450 255 0 0
-0.175217 -0.016697 -0.235698 255 0 0
-0.152532 0.057968 -0.006444 255 0 0
0.058070 -0.167741 -0.020128 255 0 0
-0.138341 0.002328 -0.202300 255 0 0
-0.112704 0.046851 0.428934 255 0 0
0.138196 -0.165047 -0.078580 255 0 0
0.079131 0.111032 0.235330 255 0 0
0.117034 -0.156115 0.379509 255 0 0
0.000434 0.103772 0.181089 255 0 0
-0.067950 0.039513 -0.153183 255 0 0
0.111609 -0.072139 -0.458938 255 0 0
0.082386 -0.170593 0.140581 255 0 0
-0.321254 -0.425314 0.044150 255 0 0
-0.187577 -0.109997 -0.186633 255 0 0
0.188875 -0.060435 0.384836 255 0 0
0.241501 -0.206541 -0.115117 255 0 0
-0.154485 0.048019 0.327167 255 0 0
0.190854 -0.121350 -0.069175 255 0 0
-0.344331 -0.239462 -0.498578 255 0 0
0.111328 -0.137670 0.356582 255 0 0
0.037880 -0.012831 -0.319117 255 0 0
-0.065659 -0.175635 -0.334409 255 0 0
-0.079430 -0.173591 -0.384938 255 0 0
0.113122 -0.086503 -0.286407 255 0 0
-0.180050 0.000972 0.293202 255 0 0
-0.174439 0.007728 0.034751 255 0 0
0.163396 -0.166380 -0.072594 255 0 0
0.131797 0.102601 0.148638 255 0 0
-0.040859 0.107672 0.000263 255 0 0
-0.140998 0.070354 0.192207 255 0 0
0.186602 -0.039062 -0.181956 255 0 0
-0.187093 -0.012077 0.194900 255 0 0
-0.162422 0.029699 -0.011792 255 0 0
-0.165003 -0.116992 0.413927 255 0 0
-0.074799 0.099150 0.386506 255 0 0
0.176550 0.006476 -0.110177 255 0 0
-0.161838 -0.028555 -0.367591 255 0 0
0.022038 0.110592 0.326889 255 0 0
-0.110366 -0.038107 -0.428655 255 0 0
0.167149 -0.126699 0.231051 255 0 0
-0.189040 -0.151917 -0.112556 255 0 0
-0.179310 -0.054166 -0.350417 255 0 0
0.185115 -0.124044 0.209796 255 0 0
-0.005805 -0.013615 -0.308384 255 0 0
0.181438 -0.034112 0.398728 255 0 0
0.038858 -0.026808 -0.408062 255 0 0
0.004061 0.116388 0.150188 255 0 0
-0.122665 -0.166921 -0.046749 255 0 0
-0.119668 0.060889 0.414989 255 0 0
0.068123 -0.166022 0.119546 255 0 0
-0.191024 -0.070468 0.376803 255 0 0
0.057451 -0.166496 0.021037 255 0 0
-0.179346 0.005548 0.113387 255 0 0
0.004836 -0.006712 0.468911 255 0 0
0.000987 -0.152633 0.302528 255 0 0
0.065255 -0.159130 -0.462598 255 0 0
-0.104616 0.039255 0.434917 255 0 0
-0.173923 -0.066568 -0.376413 255 0 0
-0.193562 -0.067201 -0.101495 255 0 0
-0.182101 -0.095782 -0.361093 255 0 0
-0.138918 0.087888 0.215349 255 0 0
-0.043727 -0.169048 0.107905 255 0 0
-0.127754 0.069125 -0.086861 255 0 0
-0.179660 -0.036801 0.392756 255 0 0
-0.085601 0.102440 0.365594 255 0 0
-0.182792 -0.181325 0.152464 255 0 0
0.187345 -0.069861 -0.323475 255 0 0
-0.058722 0.117819 0.117924 255 0 0
0.192147 -0.069078 0.144792 255 0 0
-0.028741 -0.163683 0.024372 255 0 0
0.150349 0.056047 0.320641 255 0 0
0.169864 -0.118366 0.236803 255 0 0
-0.140046 -0.054153 0.463821 255 0 0
0.008839 -0.164019 -0.472659 255 0 0
0.040418 0.113009 0.027444 255 0 0
-0.059268 0.106386 0.327667 255 0 0
0.014501 -0.162249 -0.457359 255 0 0
-0.182613 -0.021780 -0.177827 255 0 0
-0.182270 -0.004856 -0.132838 255 0 0
-0.163787 0.035500 0.191942 255 0 0
-0.186237 -0.045468 0.245305 255 0 0
0.189541 -0.124998 0.095996 255 0 0
0.041730 0.076522 -0.098648 255 0 0
0.009783 -0.094069 -0.278911 255 0 0
0.158395 -0.106692 0.400345 255 0 0
-0.113441 0.081226 0.399302 255 0 0
0.014415 0.101160 0.391774 255 0 0
0.172275 -0.002922 -0.078241 255 0 0
0.188835 -0.144850 0.146999 255 0 0
0.055630 0.024920 0.453432 255 0 0
-0.127464 0.102189 0.127475 255 0 0
0.097147 0.003688 -0.078966 255 0 0
-0.160070 0.040798 0.347920 255 0 0
0.119696 0.034905 0.431671 255 0 0
0.043439 0.113836 0.293861 255 0 0
-0.041143 -0.174388 -0.222592 255 0 0
-0.182127 -0.099180 -0.195531 255 0 0
-0.067453 0.061514 -0.110410 255 0 0
-0.055749 -0.104082 0.484156 255 0 0
-0.095701 0.097655 0.384767 255 0 0
0.153908 0.037275 -0.102611 255 0 0
-0.107687 -0.167066 0.051254 255 0 0
0.124768 -0.077953 0.481193 255 0 0
-0.004547 0.042827 -0.165355 255 0 0
0.175090 -0.094485 0.440449 255 0 0
-0.100677 -0.173547 -0.406203 255 0 0
-0.168282 0.022595 0.192757 255 0 0
0.015231 -0.109317 -0.495124 255 0 0
-0.061866 -0.168582 -0.142329 255 0 0
-0.164809 -0.109332 -0.447047 255 0 0
0.189895 -0.054865 -0.103756 255 0 0
0.142783 -0.098278 0.480963 255 0 0
0.174227 -0.080087 0.261783 255 0 0
-0.186300 -0.143213 -0.191693 255 0 0
-0.049099 0.115804 0.177273 255 0 0
-0.033001 -0.162110 0.404963 255 0 0
0.133072 -0.167673 -0.385024 255 0 0
-0.132316 0.084538 0.270253 255 0 0
-0.033552 -0.117081 0.493926 255 0 0
0.058331 0.088514 -0.049421 255 0 0
-0.202176 0.019264 -0.108618 255 0 0
0.167723 -0.003647 -0.169157 255 0 0
0.058687 -0.172113 -0.419524 255 0 0
-0.020064 0.117791 0.095873 255 0 0
-0.079432 0.055274 0.428819 255 0 0
0.183052 -0.037907 0.373834 255 0 0
-0.171013 0.001248 0.388294 255 0 0
-0.133114 0.100674 0.127845 255 0 0
0.091710 -0.160339 0.469304 255 0 0
-0.064098 -0.172931 -0.364977 255 0 0
-0.188893 -0.071808 -0.094739 255 0 0
-0.014638 0.000022 -0.232789 255 0 0
-0.138302 -0.160838 -0.384990 255 0 0
-0.042996 0.110140 0.194327 255 0 0
0.127856 -0.008522 -0.260704 255 0 0
-0.091653 -0.021205 0.468649 255 0 0
-0.148534 0.069099 0.096042 255 0 0
0.196392 -0.057945 0.131715 255 0 0
0.172179 0.013744 0.372864 255 0 0
-0.143652 -0.017398 -0.330858 255 0 0
0.119082 -0.142554 0.480390 255 0 0
0.112321 -0.170634 -0.407110 255 0 0
-0.013270 0.012855 0.464481 255 0 0
0.122175 0.101165 0.217072 255 0 0
0.128282 -0.011527 -0.282768 255 0 0
0.098986 -0.040693 0.473693 255 0 0
-0.098502 -0.174488 -0.400683 255 0 0
0.085253 0.112933 0.119086 255 0 0
0.074800 0.111113 0.164065 255 0 0
0.120666 -0.030747 -0.395298 255 0 0
0.193077 -0.156351 0.167798 255 0 0
-0.107864 -0.033646 -0.410036 255 0 0
-0.184324 -0.074154 0.395106 255 0 0
-0.190116 -0.105008 -0.184513 255 0 0
-0.113529 -0.159009 -0.258488 255 0 0
-0.101987 -0.161640 0.147064 255 0 0
-0.027542 0.103292 -0.013484 255 0 0
-0.115787 -0.103199 -0.370998 255 0 0
-0.181357 -0.158495 0.231592 255 0 0
-0.165886 -0.042945 -0.119339 255 0 0
-0.185396 -0.157328 -0.161694 255 0 0
0.181494 -0.164805 -0.044693 255 0 0
0.177612 -0.089473 -0.363545 255 0 0
-0.174447 -0.090540 0.460348 255 0 0
-0.171554 0.003353 0.381828 255 0 0
-0.031261 -0.173389 -0.283988 255 0 0
-0.113144 -0.148209 -0.304638 255 0 0
-0.189275 -0.033576 0.038087 255 0 0
-0.178822 -0.132631 0.427529 255 0 0
-0.131758 -0.120224 -0.192218 255 0 0
-0.008910 -0.043566 0.010391 255 0 0
-0.037287 0.061503 0.297905 255 0 0
0.173053 -0.165341 -0.091566 255 0 0
-0.086070 -0.166536 0.112927 255 0 0
0.028596 -0.022670 -0.382565 255 0 0
-0.102993 -0.167090 -0.207060 255 0 0
-0.188654 -0.080756 0.212307 255 0 0
0.146615 0.052855 0.216585 255 0 0
0.161453 -0.169014 0.037730 255 0 0
-0.143154 0.040707 -0.130369 255 0 0
-0.021674 0.116735 0.251284 255 0 0
-0.193594 -0.068629 0.346740 255 0 0
-0.166761 0.017767 0.065736 255 0 0
0.116865 -0.018398 -0.329188 255 0 0
-0.038207 -0.041381 -0.419018 255 0 0
-0.183491 -0.167437 0.140742 255 0 0
-0.164609 -0.051945 0.451059 255 0 0
0.169249 -0.113534 -0.193467 255 0 0
0.146443 -0.170922 -0.416503 255 0 0
0.020680 -0.160351 0.250830 255 0 0
0.085856 -0.051140 -0.452639 255 0 0
-0.131761 0.043176 0.423019 255 0 0
0.183983 -0.123910 0.223121 255 0 0
0.081512 -0.104949 -0.490417 255 0 0
-0.177147 -0.074393 0.454171 255 0 0
0.095853 -0.166695 -0.166286 255 0 0
0.171574 0.000074 -0.163357 255 0 0
-0.062274 -0.041378 -0.409867 255 0 0
0.187776 -0.175731 -0.042500 255 0 0
-0.055715 -0.054612 0.463992 255 0 0
-0.011631 -0.167067 0.143347 255 0 0
0.165441 -0.080468 -0.422306 255 0 0
0.038891 -0.033684 0.478064 255 0 0
0.024304 -0.151749 0.478602 255 0 0
0.110108 -0.164432 0.279955 255 0 0
-0.127334 -0.002171 -0.244866 255 0 0
0.004087 -0.171547 -0.031043 255 0 0
0.029664 -0.152214 -0.477453 255 0 0
0.070638 0.071334 0.317853 255 0 0
-0.188899 -0.033733 -0.075973 255 0 0
0.178561 -0.116359 0.420176 255 0 0
-0.000184 -0.164623 0.162933 255 0 0
-0.070240 0.112271 0.243302 255 0 0
0.002793 -0.172344 -0.327102 255 0 0
-0.189863 -0.138678 -0.044108 255 0 0
0.179526 -0.007269 0.161004 255 0 0
-0.034274 -0.170524 0.021022 255 0 0
0.110550 -0.142470 0.279225 255 0 0
0.161811 0.021028 0.372742 255 0 0
0.041655 -0.080363 -0.066112 255 0 0
0.013982 -0.172140 -0.205263 255 0 0
0.053322 0.083566 -0.084007 255 0 0
0.035393 0.002451 -0.231279 255 0 0
0.192737 -0.157140 0.121903 255 0 0
0.067434 -0.010515 -0.318043 255 0 0
0.102833 -0.139253 -0.464026 255 0 0
-0.166281 -0.043426 -0.408029 255 0 0
-0.188537 -0.112180 -0.014656 255 0 0
0.027819 -0.115322 -0.031071 255 0 0
-0.130883 0.036008 0.434481 255 0 0
0.139920 -0.018915 -0.339392 255 0 0
-0.108132 -0.164033 -0.280430 255 0 0
0.010463 -0.101511 0.486074 255 0 0
0.151724 -0.164960 -0.058475 255 0 0
-0.092329 -0.165901 -0.207758 255 0 0
-0.179143 -0.053244 -0.302054 255 0 0
-0.002880 -0.149807 0.473998 255 0 0
0.085747 -0.105745 -0.488467 255 0 0
0.171855 -0.002218 0.186039 255 0 0
-0.194120 -0.106001 0.160518 255 0 0
0.158836 -0.156283 0.233809 255 0 0
0.148612 -0.141359 -0.190159 255 0 0
0.184456 -0.146216 -0.134155 255 0 0
0.138004 0.018410 0.441153 255 0 0
0.008585 -0.158891 0.473107 255 0 0
0.062132 0.034440 -0.153905 255 0 0
0.191216 -0.079556 0.382982 255 0 0
-0.149223 0.070949 0.112525 255 0 0
0.168403 0.037139 0.106910 255 0 0
-0.023031 0.066141 -0.115946 255 0 0
0.189732 -0.056332 -0.098863 255 0 0
0.114979 -0.082535 0.337531 255 0 0
0.119678 0.100021 0.347450 255 0 0
-0.179562 -0.161405 0.112779 255 0 0
-0.175211 0.012198 0.311307 255 0 0
0.103926 -0.165642 0.141084 255 0 0
-0.041082 0.011205 -0.038624 255 0 0
-0.075223 0.009611 0.462539 255 0 0
0.029652 -0.163292 0.076642 255 0 0
-0.039979 0.019748 0.454738 255 0 0
0.076228 -0.098172 -0.482366 255 0 0
0.179393 -0.185429 0.069940 255 0 0
-0.194223 -0.171169 0.179009 255 0 0
-0.050281 -0.151201 0.447288 255 0 0
0.189561 -0.031615 0.165948 255 0 0
-0.138869 0.076202 0.336142 255 0 0
-0.041943 -0.160126 -0.469997 255 0 0
0.103211 -0.097357 0.496664 255 0 0
-0.190022 -0.086495 -0.017851 255 0 0
-0.180714 -0.049868 0.410518 255 0 0
-0.137094 -0.167968 0.112647 255 0 0
0.124794 -0.166846 -0.153606 255 0 0
0.481830 -0.173879 0.098872 255 0 0
0.078248 0.015218 -0.203325 255 0 0
-0.083149 0.108817 0.333631 255 0 0
-0.192823 -0.036363 0.300884 255 0 0
0.154283 -0.159283 -0.384462 255 0 0
0.191195 -0.073507 -0.035903 255 0 0
-0.072227 0.033777 -0.158113 255 0 0
0.163036 -0.014004 -0.273557 255 0 0
-0.186110 -0.163159 -0.192700 255 0 0
0.196833 -0.092348 0.050025 255 0 0
0.481569 -0.376486 -0.185905 255 0 0
-0.098409 -0.159069 0.460827 255 0 0
-0.190286 -0.092532 -0.007178 255 0 0
-0.123495 0.028695 -0.142680 255 0 0
-0.019063 0.109795 0.045492 255 0 0
-0.032713 -0.165607 -0.100494 255 0 0
-0.142356 -0.108374 -0.369454 255 0 0
-0.169088 0.007640 -0.032628 255 0 0
-0.114914 -0.165947 0.146997 255 0 0
0.018965 0.116346 0.260641 255 0 0
-0.182914 -0.013337 0.248699 255 0 0
0.078288 -0.126447 -0.479704 255 0 0
-0.066163 0.105027 0.232652 255 0 0
0.065089 -0.165757 -0.161421 255 0 0
-0.160202 -0.061352 -0.028462 255 0 0
0.091517 -0.161898 0.283697 255 0 0
0.057962 0.116002 0.160112 255 0 0
0.192129 -0.150420 0.015312 255 0 0
0.089010 -0.097971 -0.481217 255 0 0
0.193043 -0.051354 0.359782 255 0 0
0.052286 -0.155853 0.400916 255 0 0
-0.195384 -0.097577 0.247831 255 0 0
-0.025925 -0.169159 -0.283102 255 0 0
0.010118 -0.155262 0.234213 255 0 0
-0.181396 -0.017547 -0.023078 255 0 0
-0.057586 0.094897 -0.041556 255 0 0
-0.103292 0.102205 0.373316 255 0 0
0.008770 -0.151597 0.482201 255 0 0
-0.006042 -0.167270 -0.462735 255 0 0
0.104161 0.113133 0.217622 255 0 0
0.194654 -0.158411 0.123535 255 0 0
0.101564 0.101496 0.359434 255 0 0
0.182261 -0.079721 0.216336 255 0 0
-0.092622 0.326618 0.466479 255 0 0
-0.079815 -0.100115 0.494921 255 0 0
0.195425 0.005980 -0.121428 255 0 0
-0.016235 -0.175123 -0.240233 255 0 0
0.185245 -0.159139 -0.147819 255 0 0
-0.027614 -0.153680 0.450577 255 0 0
0.062288 -0.165793 -0.208270 255 0 0
0.019972 -0.152451 0.450821 255 0 0
0.189524 -0.077155 0.136259 255 0 0
-0.136113 0.081715 0.052965 255 0 0
0.190242 -0.110483 -0.091924 255 0 0
0.044941 0.114781 0.216018 255 0 0
-0.213796 -0.000237 -0.114168 255 0 0
-0.157503 0.054983 0.063249 255 0 0
0.143912 -0.115916 -0.465317 255 0 0
-0.111103 -0.126719 -0.298723 255 0 0
0.158789 0.036391 -0.045769 255 0 0
0.191967 -0.161654 -0.014326 255 0 0
-0.030059 0.115130 0.170386 255 0 0
0.173205 -0.073569 0.432152 255 0 0
0.091309 -0.007268 -0.294199 255 0 0
-0.107210 0.114691 0.105469 255 0 0
-0.174167 -0.014163 0.432224 255 0 0
0.018809 -0.141260 -0.477569 255 0 0
-0.169876 0.001358 0.246119 255 0 0
-0.108432 -0.135324 -0.467295 255 0 0
0.189308 -0.166146 0.062587 255 0 0
0.020809 -0.155189 -0.471839 255 0 0
0.195248 -0.043211 0.042046 255 0 0
-0.074383 -0.108209 -0.485622 255 0 0
0.082512 -0.166746 0.007178 255 0 0
-0.095742 -0.160683 0.293517 255 0 0
-0.019546 -0.167414 -0.049802 255 0 0
-0.085205 -0.007614 -0.281942 255 0 0
-0.086876 0.018645 -0.185521 255 0 0
0.189770 -0.098023 0.027137 255 0 0
-0.106868 -0.174882 -0.362312 255 0 0
-0.175024 -0.149758 -0.394635 255 0 0
0.165617 -0.089811 -0.202358 255 0 0
-0.180826 -0.040749 -0.137341 255 0 0
-0.015685 0.105841 0.279666 255 0 0
-0.183200 -0.008480 0.011548 255 0 0
-0.040887 -0.059043 0.477233 255 0 0
-0.168114 -0.080065 -0.409365 255 0 0
0.191424 -0.130843 -0.089390 255 0 0
0.081960 -0.165973 -0.181900 255 0 0
-0.191065 -0.083209 0.244771 255 0 0
0.114233 -0.080891 0.375987 255 0 0
0.188773 -0.153653 0.154443 255 0 0
-0.168907 -0.095668 -0.371154 255 0 0
-0.102019 0.095704 0.003728 255 0 0
0.071361 -0.041289 -0.432238 255 0 0
0.169357 -0.151537 0.445823 255 0 0
-0.195056 -0.103923 -0.016301 255 0 0
-0.187050 -0.146223 -0.135324 255 0 0
0.055092 -0.161941 0.404196 255 0 0
0.105800 0.101162 -0.014199 255 0 0
0.100989 0.074780 -0.084739 255 0 0
0.079620 -0.158178 -0.445691 255 0 0
-0.069994 -0.154496 -0.452028 255 0 0
-0.183962 -0.014510 -0.078061 255 0 0
0.058456 -0.018744 -0.363182 255 0 0
-0.205137 -0.084231 -0.021978 0 255 0
-0.004621 -0.166776 0.387636 0 255 0
0.052632 0.004500 -0.256087 0 255 0
0.171198 0.028413 -0.045886 0 255 0
0.105793 -0.171681 -0.150527 0 255 0
-0.173490 -0.006601 -0.190754 0 255 0
0.044858 0.119993 0.234833 0 255 0
0.059557 -0.176442 -0.090951 0 255 0
0.153523 -0.165763 -0.443224 0 255 0
-0.136987 0.272721 -0.429305 0 255 0
-0.117163 -0.063163 -0.277924 0 255 0
0.379404 0.324999 0.335952 0 255 0
-0.376073 0.472669 0.373267 0 255 0
0.024220 -0.178024 -0.400816 0 255 0
0.358281 -0.382097 -0.096948 0 255 0
-0.198916 -0.178201 0.101605 0 255 0
0.184529 -0.058709 0.426264 0 255 0
-0.123127 -0.154653 0.395975 0 255 0
0.014022 0.118683 0.073615 0 255 0
0.043370 -0.176433 -0.113334 0 255 0
0.004923 -0.160330 0.480287 0 255 0
-0.113627 0.026124 -0.174521 0 255 0
-0.114191 0.120185 0.192150 0 255 0
0.045210 -0.177198 0.115590 0 255 0
0.195161 -0.140471 -0.007152 0 255 0
-0.378884 0.485001 0.316358 0 255 0
0.125199 -0.029784 0.473249 0 255 0
-0.173764 -0.075954 0.468822 0 255 0
-0.201966 -0.083012 0.077420 0 255 0
0.193016 -0.089196 0.439185 0 255 0
0.065109 -0.182241 -0.116616 0 255 0
-0.028068 -0.020625 -0.391652 0 255 0
-0.491679 -0.204108 0.037710 0 255 0
0.200948 -0.066189 -0.091039 0 255 0
0.132928 -0.129167 -0.471810 0 255 0
0.006596 -0.164797 0.471535 0 255 0
-0.073917 -0.179128 0.259987 0 255 0
0.111203 -0.021223 -0.395963 0 255 0
0.148540 0.071662 0.279813 0 255 0
0.191191 -0.179475 0.175372 0 255 0
0.073882 -0.050904 -0.461880 0 255 0
-0.155443 -0.080563 -0.348797 0 255 0
0.372874 0.103713 -0.013680 0 255 0
-0.138948 -0.277647 0.302440 0 255 0
-0.200317 -0.059959 -0.261714 0 255 0
0.168572 -0.178350 0.093747 0 255 0
0.039688 0.121310 0.135457 0 255 0
0.444251 -0.477535 0.221021 0 255 0
0.004892 0.072249 -0.118368 0 255 0
0.091795 0.021485 0.468388 0 255 0
-0.178411 0.024764 0.096333 0 255 0
0.012167 -0.167763 0.364060 0 255 0
-0.219985 -0.233221 0.129728 0 255 0
0.177505 -0.177750 -0.390892 0 255 0
0.190704 -0.186774 0.041352 0 255 0
0.021251 -0.126529 0.502933 0 255 0
-0.079764 0.197013 -0.204959 0 255 0
-0.185847 0.089667 -0.479679 0 255 0
-0.137755 -0.064288 0.338722 0 255 0
0.204461 -0.114675 -0.082547 0 255 0
0.038367 -0.169785 0.388792 0 255 0
-0.115162 -0.085500 -0.208732 0 255 0
-0.037098 0.256933 0.275765 0 255 0
0.186806 -0.054556 0.428567 0 255 0
0.147039 -0.173766 0.184044 0 255 0
0.408686 0.316366 -0.493347 0 255 0
-0.058958 0.020174 0.466656 0 255 0
0.343229 -0.326682 -0.292821 0 255 0
0.197665 -0.079764 -0.321425 0 255 0
-0.179225 0.012336 0.408181 0 255 0
-0.120888 -0.167661 0.422554 0 255 0
-0.197604 -0.109791 -0.069509 0 255 0
-0.114840 -0.171005 0.157990 0 255 0
-0.082533 -0.174285 -0.461634 0 255 0
0.058411 -0.177325 -0.017271 0 255 0
0.198032 -0.157243 0.089020 0 255 0
-0.418096 -0.284495 -0.177990 0 255 0
-0.128222 -0.173767 0.155939 0 255 0
0.195546 -0.057612 -0.241432 0 255 0
-0.043719 -0.075989 -0.484330 0 255 0
0.179032 -0.121242 0.249053 0 255 0
-0.146593 0.070815 0.408725 0 255 0
-0.037474 0.117582 0.005315 0 255 0
0.141495 0.082604 0.249296 0 255 0
0.117928 0.116509 0.249136 0 255 0
-0.015855 -0.176581 -0.236485 0 255 0
-0.084123 -0.178087 0.156881 0 255 0
-0.135722 -0.097492 -0.474455 0 255 0
-0.140252 -0.161202 0.236075 0 255 0
-0.000051 0.121641 0.114149 0 255 0
0.057841 0.055642 0.436305 0 255 0
-0.003424 -0.189068 -0.269643 0 255 0
-0.084886 0.039772 0.446278 0 255 0
-0.134207 -0.172181 0.073334 0 255 0
0.030920 -0.162795 0.479092 0 255 0
-0.103126 -0.228290 0.158014 0 255 0
-0.174881 -0.136155 -0.368272 0 255 0
0.053797 -0.026050 -0.429886 0 255 0
-0.346194 0.096215 0.374460 0 255 0
-0.200065 -0.098663 0.178687 0 255 0
-0.076382 0.113190 0.020279 0 255 0
-0.281714 0.082620 -0.046337 0 255 0
0.070802 -0.088378 -0.490603 0 255 0
0.040817 0.002336 -0.277142 0 255 0
-0.190593 -0.043782 -0.221924 0 255 0
0.073996 0.046527 0.444970 0 255 0
0.061490 0.123530 0.115432 0 255 0
-0.062147 0.029284 0.453471 0 255 0
0.133261 -0.065927 0.327729 0 255 0
0.193828 -0.162736 0.403068 0 255 0
-0.011604 0.037744 -0.177032 0 255 0
-0.090196 -0.020835 -0.398749 0 255 0
0.194119 -0.249163 -0.130778 0 255 0
-0.033055 -0.172598 0.227137 0 255 0
-0.152628 -0.051877 -0.446755 0 255 0
-0.107206 -0.166339 0.461412 0 255 0
0.192430 -0.022030 0.118754 0 255 0
0.090641 -0.175231 0.066908 0 255 0
-0.199082 -0.117736 0.399720 0 255 0
0.042124 -0.096099 -0.502731 0 255 0
0.195941 -0.041466 -0.033532 0 255 0
0.191352 -0.009997 0.191048 0 255 0
0.201708 -0.107787 0.083022 0 255 0
-0.175716 0.013145 0.339316 0 255 0
-0.049373 0.038913 -0.168210 0 255 0
0.034505 -0.175573 -0.172717 0 255 0
-0.160981 -0.041256 -0.420975 0 255 0
-0.121056 -0.140137 0.484257 0 255 0
0.181297 -0.137218 -0.382691 0 255 0
0.471059 0.477670 0.267167 0 255 0
0.114524 -0.164039 -0.221033 0 255 0
-0.068692 -0.021609 -0.392359 0 255 0
0.095152 0.074051 -0.100646 0 255 0
-0.138949 -0.178710 0.133299 0 255 0
0.066600 0.032753 -0.175388 0 255 0
0.198718 -0.062061 0.154608 0 255 0
-0.410173 -0.378230 0.042248 0 255 0
0.044128 -0.181244 -0.237873 0 255 0
-0.077498 -0.179184 0.240541 0 255 0
-0.464731 0.172916 -0.200561 0 255 0
0.139878 0.100123 0.163605 0 255 0
0.122502 0.053633 0.425837 0 255 0
-0.143052 0.073119 -0.080668 0 255 0
-0.076900 -0.001718 -0.296564 0 255 0
-0.076181 0.068138 -0.115217 0 255 0
-0.195995 -0.029956 0.191609 0 255 0
0.067354 0.112698 -0.026173 0 255 0
-0.076438 -0.014424 -0.361917 0 255 0
-0.123991 -0.158124 0.337434 0 255 0
0.156550 -0.093885 0.387233 0 255 0
-0.126463 -0.160616 -0.374680 0 255 0
-0.136498 -0.058674 -0.307750 0 255 0
-0.196960 -0.027406 -0.036257 0 255 0
0.106674 -0.097859 -0.485054 0 255 0
-0.077587 0.120081 0.041982 0 255 0
0.013412 -0.178818 -0.390348 0 255 0
0.198670 -0.157695 0.125543 0 255 0
-0.184943 -0.084747 -0.373176 0 255 0
0.056898 0.014069 0.465432 0 255 0
0.033938 -0.171256 -0.463983 0 255 0
-0.191412 -0.008578 0.251856 0 255 0
0.194140 -0.134161 0.106783 0 255 0
0.168978 0.024790 0.373991 0 255 0
0.201170 0.016565 -0.111827 0 255 0
-0.193560 -0.122944 0.167696 0 255 0
0.192948 -0.017351 0.074641 0 255 0
0.150443 0.040386 -0.139759 0 255 0
-0.067110 -0.176655 -0.197982 0 255 0
-0.188676 -0.039035 0.411909 0 255 0
-0.007157 0.115906 0.299436 0 255 0
-0.202168 -0.077232 0.293333 0 255 0
0.197947 -0.040425 0.233122 0 255 0
0.041170 -0.163178 0.430205 0 255 0
0.136189 -0.005770 -0.360298 0 255 0
0.143114 0.093555 0.086806 0 255 0
0.455851 0.279685 -0.301261 0 255 0
0.151464 -0.129114 0.478605 0 255 0
0.017961 -0.179182 -0.386100 0 255 0
0.171110 0.014542 0.433347 0 255 0
0.114270 0.307071 -0.206528 0 255 0
-0.124840 -0.170651 -0.065190 0 255 0
0.118636 -0.081719 -0.338909 0 255 0
-0.151956 -0.045945 -0.454630 0 255 0
0.200984 -0.066825 0.229064 0 255 0
0.167356 -0.172467 -0.195688 0 255 0
-0.012831 0.050094 0.448544 0 255 0
0.071967 -0.175649 0.123993 0 255 0
-0.125250 0.118099 0.131525 0 255 0
0.131476 -0.160974 0.383386 0 255 0
0.161121 0.034049 -0.121161 0 255 0
-0.022167 -0.171329 -0.452593 0 255 0
0.096650 0.113948 0.013204 0 255 0
-0.118951 -0.171109 -0.147501 0 255 0
0.195262 -0.109235 -0.178698 0 255 0
-0.123111 0.118651 0.037761 0 255 0
-0.023176 0.087952 -0.086102 0 255 0
-0.195321 -0.169409 -0.160866 0 255 0
-0.164056 0.032925 0.380023 0 255 0
-0.189844 -0.043837 -0.215434 0 255 0
0.497172 -0.211521 -0.496183 0 255 0
0.182872 -0.118505 0.437811 0 255 0
0.006102 -0.088098 -0.504331 0 255 0
-0.030657 -0.169225 0.383367 0 255 0
-0.066968 -0.179543 -0.366265 0 255 0
-0.070832 0.123913 0.169897 0 255 0
-0.383273 -0.030810 0.242298 0 255 0
0.114002 -0.184373 0.426098 0 255 0
0.005000 -0.079294 0.492218 0 255 0
0.117009 -0.007802 0.489080 0 255 0
0.063970 -0.056341 -0.475854 0 255 0
-0.188171 0.002359 -0.036267 0 255 0
-0.194369 -0.089280 0.212439 0 255 0
0.132348 0.098345 0.310384 0 255 0
0.255956 -0.087644 -0.342459 0 255 0
0.208170 -0.020832 0.191930 0 255 0
0.158277 -0.172885 0.178492 0 255 0
-0.010802 0.056508 -0.149314 0 255 0
-0.084964 -0.142423 -0.480567 0 255 0
-0.197666 -0.057539 -0.002516 0 255 0
-0.141949 0.094108 0.251438 0 255 0
-0.159688 0.042712 -0.080047 0 255 0
-0.189178 -0.149051 -0.203403 0 255 0
0.163905 0.039995 -0.017888 0 255 0
0.091804 -0.171799 0.289004 0 255 0
-0.185491 0.004968 0.227217 0 255 0
0.158294 -0.160471 -0.373781 0 255 0
0.196066 -0.093406 -0.197846 0 255 0
0.160095 0.056406 0.227337 0 255 0
0.088798 -0.050685 -0.462989 0 255 0
-0.117095 0.039462 -0.152491 0 255 0
-0.030816 0.008065 -0.283342 0 255 0
-0.123616 -0.131790 0.284329 0 255 0
-0.126307 0.055276 0.425511 0 255 0
0.059024 0.077450 0.416099 0 255 0
-0.296127 0.424007 -0.369621 0 255 0
0.165969 -0.110709 0.473822 0 255 0
0.135718 0.088566 0.302806 0 255 0
-0.243633 0.012710 0.497471 0 255 0
0.189767 -0.079759 0.409364 0 255 0
-0.080378 0.124052 0.217583 0 255 0
0.182374 -0.028904 -0.327175 0 255 0
-0.013245 0.128244 0.304331 0 255 0
-0.034734 0.114533 0.306984 0 255 0
-0.105918 -0.158314 0.474471 0 255 0
-0.133696 0.067542 -0.105881 0 255 0
-0.007766 -0.111328 0.503109 0 255 0
0.143151 -0.134784 0.242324 0 255 0
-0.107490 -0.178986 -0.350177 0 255 0
-0.111372 -0.100842 0.497972 0 255 0
0.180932 -0.106808 -0.419491 0 255 0
-0.175176 0.014264 -0.139682 0 255 0
0.001785 0.056408 0.431653 0 255 0
-0.178126 0.147846 -0.080434 0 255 0
0.047223 0.104995 0.384733 0 255 0
0.151890 0.003445 -0.209695 0 255 0
-0.167862 -0.153029 0.403315 0 255 0
0.206077 -0.045019 0.111642 0 255 0
-0.031230 0.129082 0.057950 0 255 0
-0.013916 -0.179157 -0.149484 0 255 0
0.120282 -0.173970 0.151504 0 255 0
-0.098045 -0.168880 0.315712 0 255 0
-0.188342 -0.009967 0.044103 0 255 0
-0.035275 0.035891 -0.173582 0 255 0
0.017230 0.010349 -0.237657 0 255 0
0.055554 0.022371 0.472625 0 255 0
-0.052419 -0.022028 0.481759 0 255 0
-0.321261 0.265408 -0.352538 0 255 0
-0.196358 -0.043871 0.214625 0 255 0
0.194460 -0.026768 0.364980 0 255 0
-0.191460 -0.144576 -0.159237 0 255 0
0.200479 -0.072820 0.155254 0 255 0
-0.037063 -0.188372 -0.173557 0 255 0
0.123032 -0.137680 -0.459782 0 255 0
-0.121469 -0.135518 -0.259863 0 255 0
-0.125764 -0.370816 0.359513 0 255 0
0.194619 -0.010081 0.056183 0 255 0
0.184700 -0.178904 -0.178768 0 255 0
0.116790 -0.181833 -0.377454 0 255 0
-0.088360 0.054032 0.436768 0 255 0
0.054544 -0.184620 -0.268442 0 255 0
0.143051 -0.170486 0.151694 0 255 0
-0.460722 0.234487 -0.233920 0 255 0
0.076545 -0.176460 -0.089402 0 255 0
0.175430 0.018976 0.222111 0 255 0
0.021118 0.301593 0.460855 0 255 0
0.072971 -0.184803 -0.368358 0 255 0
-0.013931 0.061705 -0.140361 0 255 0
-0.148480 -0.069710 0.479000 0 255 0
0.030738 0.119331 0.308187 0 255 0
0.134170 -0.028864 -0.405455 0 255 0
-0.326882 -0.340498 -0.250109 0 255 0
0.023312 0.007442 -0.245991 0 255 0
0.027423 -0.176213 -0.218276 0 255 0
-0.126499 -0.158681 0.370943 0 255 0
0.095555 -0.175364 -0.189539 0 255 0
-0.043789 -0.174699 -0.063519 0 255 0
-0.194775 -0.098148 -0.351573 0 255 0
-0.495950 -0.134674 -0.235705 0 255 0
0.080015 -0.173626 0.179470 0 255 0
-0.347503 0.489658 0.438613 0 255 0
-0.128463 0.054220 -0.116205 0 255 0
-0.067007 0.111270 -0.011347 0 255 0
-0.206640 -0.062998 0.265666 0 255 0
0.055172 -0.060534 0.481933 0 255 0
-0.132630 -0.162596 -0.366487 0 255 0
0.118693 -0.089146 0.259284 0 255 0
-0.392438 0.019831 0.428896 0 255 0
0.075074 -0.152310 0.494099 0 255 0
-0.200496 -0.027454 0.331324 0 255 0
-0.156883 0.065870 -0.017651 0 255 0
-0.195578 -0.061074 -0.202452 0 255 0
0.199011 -0.148886 -0.089750 0 255 0
0.140805 -0.114234 0.490260 0 255 0
0.181057 -0.038801 -0.315198 0 255 0
0.134270 0.098883 0.294296 0 255 0
-0.208464 -0.102104 0.023800 0 255 0
-0.041557 -0.176660 -0.150559 0 255 0
0.197589 -0.089021 -0.203060 0 255 0
-0.190072 -0.016866 0.262590 0 255 0
0.040465 -0.174319 -0.426200 0 255 0
-0.113564 0.115796 0.101966 0 255 0
-0.091423 -0.172960 0.052672 0 255 0
-0.178492 0.025002 0.344351 0 255 0
0.135290 -0.175524 0.232782 0 255 0
-0.143316 -0.347977 0.392784 0 255 0
-0.198197 -0.147102 0.056737 0 255 0
0.009908 -0.177931 -0.279427 0 255 0
0.026156 -0.174531 0.031009 0 255 0
-0.057735 -0.176087 -0.289891 0 255 0
0.432177 -0.319891 0.249052 0 255 0
0.170787 -0.175664 0.024178 0 255 0
-0.135095 0.087813 0.341433 0 255 0
-0.050366 -0.166715 -0.466309 0 255 0
-0.131298 -0.175811 -0.140636 0 255 0
0.320037 -0.260021 0.365055 0 255 0
-0.135052 -0.172447 0.111636 0 255 0
0.435555 -0.370451 -0.263264 0 255 0
0.149142 -0.077426 0.358322 0 255 0
0.070631 -0.067933 0.481897 0 255 0
-0.202642 -0.091920 0.265360 0 255 0
-0.200601 -0.180594 0.041193 0 255 0
0.042441 -0.023239 -0.407487 0 255 0
0.180017 -0.061671 -0.368790 0 255 0
0.192705 -0.017558 -0.000328 0 255 0
0.051520 -0.056256 0.481558 0 255 0
0.044318 -0.174751 -0.030295 0 255 0
0.005674 -0.173603 -0.068013 0 255 0
0.201289 -0.084524 0.245334 0 255 0
-0.224769 0.228189 0.336532 0 255 0
-0.049675 0.049749 -0.156603 0 255 0
0.183147 -0.119162 -0.408935 0 255 0
0.163025 -0.107573 0.485831 0 255 0
-0.190113 -0.066027 0.397534 0 255 0
-0.120247 -0.129158 0.256442 0 255 0
-0.145369 -0.305989 0.103915 0 255 0
-0.053599 -0.423483 0.148774 0 255 0
0.006358 0.106883 -0.034842 0 255 0
0.115174 0.114753 0.292823 0 255 0
-0.396299 0.264175 -0.077298 0 255 0
-0.045824 -0.437533 -0.369271 0 255 0
0.119411 -0.170247 -0.208051 0 255 0
-0.114629 -0.409441 -0.119640 0 255 0
-0.162744 -0.124527 -0.454324 0 255 0
0.097720 -0.061914 -0.464712 0 255 0
-0.073814 0.064820 -0.124345 0 255 0
-0.197936 -0.343962 -0.190378 0 255 0
-0.163920 0.030992 -0.120806 0 255 0
0.041861 0.120712 0.090040 0 255 0
-0.129613 0.102429 0.242596 0 255 0
-0.021644 -0.175616 0.280315 0 255 0
-0.175968 0.021006 -0.053831 0 255 0
-0.170223 -0.036794 -0.419707 0 255 0
0.190280 -0.031672 -0.195214 0 255 0
0.201032 -0.005652 0.174598 0 255 0
0.116396 0.237049 -0.236648 0 255 0
0.156960 -0.100376 0.390964 0 255 0
-0.078551 -0.001091 -0.281564 0 255 0
0.065329 0.093152 -0.061084 0 255 0
-0.161847 0.057162 0.095742 0 255 0
-0.128352 -0.126040 -0.279408 0 255 0
0.043493 -0.181797 -0.335010 0 255 0
0.266679 0.093690 -0.115326 0 255 0
-0.185083 0.022286 0.201255 0 255 0
0.293697 0.219916 0.482780 0 255 0
-0.197253 -0.034057 0.021863 0 255 0
0.079245 -0.321576 0.363779 0 255 0
-0.096754 -0.171354 0.278386 0 255 0
-0.084093 0.122618 0.035631 0 255 0
0.030573 0.004106 -0.249052 0 255 0
-0.194066 -0.096139 0.212804 0 255 0
0.051787 0.033669 -0.176801 0 255 0
-0.020322 -0.177050 -0.074059 0 255 0
0.072083 -0.168802 -0.466110 0 255 0
-0.097229 0.105716 -0.010115 0 255 0
0.114125 -0.165884 0.404483 0 255 0
0.169059 -0.088107 0.383417 0 255 0
0.186578 -0.005988 -0.179501 0 255 0
-0.174008 -0.166701 0.421975 0 255 0
0.371135 0.148992 0.183764 0 255 0
0.130142 -0.000619 -0.299998 0 255 0
-0.208027 0.126839 0.419368 0 255 0
-0.049841 -0.112036 -0.496206 0 255 0
0.043268 0.118616 0.281525 0 255 0
0.031545 -0.175012 0.229157 0 255 0
0.117383 -0.174177 -0.249819 0 255 0
-0.049930 -0.176054 -0.147180 0 255 0
-0.152940 -0.179992 -0.408480 0 255 0
0.118143 -0.164002 0.416106 0 255 0
-0.076343 -0.173454 -0.241252 0 255 0
0.295620 0.197033 -0.036646 0 255 0
-0.019283 -0.174594 0.141612 0 255 0
-0.168040 -0.173124 -0.064307 0 255 0
-0.041738 -0.182835 -0.097392 0 255 0
-0.182964 -0.479886 -0.167061 0 255 0
0.117555 0.077285 0.407576 0 255 0
-0.197356 -0.131499 0.050023 0 255 0
-0.205432 -0.089117 0.231198 0 255 0
-0.203660 -0.086695 0.057555 0 255 0
-0.149301 -0.017495 -0.372964 0 255 0
0.393019 -0.364826 -0.190599 0 255 0
-0.171969 -0.028456 -0.353219 0 255 0
-0.279902 -0.303451 0.282160 0 255 0
0.052067 -0.009654 -0.358409 0 255 0
-0.128896 0.087945 0.372093 0 255 0
0.038664 -0.000393 -0.289216 0 255 0
-0.109163 -0.158297 0.436937 0 255 0
-0.116913 -0.146300 -0.226065 0 255 0
0.179236 -0.024242 -0.324840 0 255 0
0.018761 -0.185964 -0.072469 0 255 0
0.138350 -0.180047 -0.034280 0 255 0
0.004774 0.091475 0.401987 0 255 0
0.083581 0.100552 -0.035253 0 255 0
-0.179585 -0.066857 0.303953 0 255 0
0.154804 0.060534 0.042099 0 255 0
-0.187122 -0.170131 0.146869 0 255 0
-0.178460 -0.145279 0.439752 0 255 0
-0.078051 -0.178575 0.036966 0 255 0
0.063509 -0.171041 0.183315 0 255 0
0.046270 0.101043 -0.064558 0 255 0
-0.103908 -0.174220 -0.074122 0 255 0
0.153339 -0.006206 0.459672 0 255 0
-0.102340 -0.000795 -0.259838 0 255 0
0.192263 -0.113819 -0.180344 0 255 0
0.006574 0.105829 -0.031279 0 255 0
-0.382544 0.255296 0.017644 0 255 0
-0.143548 0.070752 0.336392 0 255 0
-0.200782 -0.082072 -0.149881 0 255 0
0.161127 0.047523 -0.039727 0 255 0
0.121351 -0.062362 -0.250039 0 255 0
0.060600 -0.172613 0.251362 0 255 0
-0.446345 0.151282 -0.191997 0 255 0
-0.043358 -0.020161 -0.393056 0 255 0
0.042184 -0.174045 0.292073 0 255 0
-0.111965 0.116023 0.171274 0 255 0
0.010868 -0.173518 -0.454751 0 255 0
-0.144680 -0.173543 0.001507 0 255 0
-0.062554 0.037926 -0.171534 0 255 0
0.156251 0.053510 -0.002891 0 255 0
0.120737 -0.142004 0.363173 0 255 0
0.098539 -0.172127 -0.089535 0 255 0
-0.288460 -0.263659 -0.103597 0 255 0
0.081206 0.057919 -0.132410 0 255 0
0.066721 0.470059 0.340960 0 255 0
-0.131424 0.121224 0.111133 0 255 0
0.201206 -0.163281 0.134801 0 255 0
0.131975 -0.137637 0.490125 0 255 0
0.039966 -0.125614 0.498769 0 255 0
0.165793 -0.174555 -0.037378 0 255 0
-0.165983 -0.173195 -0.108806 0 255 0
-0.161429 -0.123741 -0.462036 0 255 0
0.001588 0.119679 0.213100 0 255 0
-0.164021 0.015591 -0.158719 0 255 0
0.197641 -0.079287 0.394916 0 255 0
0.069789 -0.484533 0.048458 0 255 0
-0.228662 0.387010 0.114614 0 255 0
-0.047998 -0.179843 -0.215736 0 255 0
0.027627 -0.103942 -0.500652 0 255 0
-0.390152 0.268420 0.129868 0 255 0
-0.112779 -0.113690 0.493923 0 255 0
-0.118449 -0.155918 -0.290516 0 255 0
0.023520 0.120196 0.173783 0 255 0
-0.045164 -0.169394 0.311862 0 255 0
-0.176527 0.211655 -0.423054 0 255 0
0.038694 0.113028 0.355061 0 255 0
-0.187426 -0.001617 0.348250 0 255 0
-0.043353 -0.009824 0.486421 0 255 0
0.140770 -0.161268 0.465357 0 255 0
0.004702 -0.169637 0.254676 0 255 0
0.047148 0.100259 -0.065435 0 255 0
0.181160 0.011320 0.349225 0 255 0
-0.138362 -0.106686 -0.475780 0 255 0
-0.153929 0.063055 0.211349 0 255 0
-0.317967 0.294085 0.289462 0 255 0
0.337644 -0.154676 -0.003562 0 255 0
0.197477 -0.110349 0.232010 0 255 0
-0.196290 -0.006021 0.087943 0 255 0
0.192037 -0.016398 0.246348 0 255 0
-0.153942 -0.158028 0.459661 0 255 0
0.199232 -0.065449 -0.215705 0 255 0
0.197305 -0.123861 -0.052774 0 255 0
-0.037612 -0.075992 -0.490096 0 255 0
0.193828 -0.023852 -0.193897 0 255 0
-0.112647 -0.169237 0.282133 0 255 0
0.206555 -0.072080 0.067426 0 255 0
-0.171602 -0.160332 -0.202066 0 255 0
-0.279313 0.093762 -0.412409 0 255 0
-0.141696 -0.165793 0.427733 0 255 0
0.001720 -0.214243 0.137486 0 255 0
0.012585 0.044325 -0.179989 0 255 0
-0.191776 -0.100201 -0.363926 0 255 0
-0.097151 -0.179539 -0.309454 0 255 0
0.200763 -0.088597 -0.217877 0 255 0
-0.195591 0.220148 0.132089 0 255 0
-0.171066 0.037248 0.138597 0 255 0
0.193939 -0.030322 0.320479 0 255 0
-0.194326 -0.174821 0.030645 0 255 0
-0.125196 0.105736 0.304294 0 255 0
0.104288 0.392557 -0.271075 0 255 0
0.170087 -0.043106 -0.400459 0 255 0
-0.076387 -0.302330 0.479182 0 255 0
0.318836 -0.236836 -0.251317 0 255 0
-0.170444 -0.076956 0.359201 0 255 0
0.183836 -0.025592 -0.271987 0 255 0
-0.093304 0.008271 -0.244939 0 255 0
-0.175937 0.015485 0.018626 0 255 0
0.420076 -0.224589 0.464998 0 255 0
0.199945 -0.158772 0.086781 0 255 0
-0.128317 0.116534 0.085043 0 255 0
0.193233 -0.061282 -0.219272 0 255 0
-0.173339 -0.178422 -0.404062 0 255 0
0.198055 -0.042307 0.070588 0 255 0
-0.202023 -0.085940 0.254063 0 255 0
-0.194583 -0.150676 -0.090333 0 255 0
0.096668 0.119439 0.177214 0 255 0
0.180612 -0.120845 0.394469 0 255 0
-0.155141 -0.101081 0.483748 0 255 0
0.132653 0.081876 0.383850 0 255 0
0.164582 0.046760 0.166544 0 255 0
-0.195626 -0.162369 -0.095511 0 255 0
-0.157662 -0.177118 0.151729 0 255 0
-0.116122 -0.066626 -0.307002 0 255 0
0.116940 0.009403 -0.252009 0 255 0
-0.006612 0.100456 -0.066519 0 255 0
0.156337 0.065499 0.300094 0 255 0
-0.104570 -0.176053 -0.431796 0 255 0
0.048670 -0.171602 0.220744 0 255 0
0.053048 -0.183100 -0.415018 0 255 0
-0.196759 -0.035264 0.450195 0 255 0
-0.400834 0.357763 -0.471658 0 255 0
-0.122959 0.108820 0.021301 0 255 0
-0.460361 -0.173974 0.364852 0 255 0
-0.199281 -0.174490 0.168658 0 255 0
-0.195043 -0.168454 -0.037524 0 255 0
0.051600 0.454007 -0.399729 0 255 0
0.195114 -0.068709 -0.321978 0 255 0
0.176547 -0.111410 -0.366740 0 255 0
0.359502 -0.462140 -0.068116 0 255 0
0.185838 -0.024373 -0.213171 0 255 0
-0.198006 -0.103976 -0.000371 0 255 0
0.153964 0.014659 0.454759 0 255 0
0.179802 -0.014154 0.426026 0 255 0
0.114589 -0.117670 -0.326475 0 255 0
0.020171 -0.314472 -0.427527 0 255 0
0.015366 -0.171591 0.191035 0 255 0
-0.103950 0.108297 0.350410 0 255 0
-0.149420 0.082738 0.122712 0 255 0
0.060947 0.128586 0.125774 0 255 0
-0.150716 0.084738 0.139701 0 255 0
0.099878 -0.168661 0.380167 0 255 0
0.149748 0.070960 0.325228 0 255 0
0.097162 0.017255 0.461740 0 255 0
-0.096859 -0.173524 -0.101348 0 255 0
-0.194145 -0.035691 0.246001 0 255 0
-0.034986 0.110020 -0.009098 0 255 0
-0.090389 -0.440479 0.249169 0 255 0
0.195902 -0.075439 0.213817 0 255 0
0.047349 0.006866 -0.251287 0 255 0
0.171384 0.030023 0.232931 0 255 0
-0.183165 0.007025 0.391140 0 255 0
-0.164909 0.029495 0.379810 0 255 0
-0.157177 0.049864 0.301859 0 255 0
0.254572 0.432788 -0.426214 0 255 0
-0.202016 -0.113997 0.248681 0 255 0
0.058186 -0.137165 -0.487620 0 255 0
0.184956 -0.026943 -0.178686 0 255 0
-0.178143 0.019704 0.246943 0 255 0
-0.069514 0.012403 -0.226175 0 255 0
-0.241536 0.022262 0.179479 0 255 0
0.083011 0.116422 0.055387 0 255 0
-0.177186 0.307634 0.040645 0 255 0
0.129748 0.095194 0.364153 0 255 0
0.033718 0.006916 0.472215 0 255 0
0.126563 -0.008009 -0.334949 0 255 0
0.163045 0.047729 0.286028 0 255 0
0.075962 -0.041568 0.481754 0 255 0
0.033986 -0.027283 0.482382 0 255 0
0.388399 0.314686 -0.006936 0 255 0
-0.170971 0.037867 0.125591 0 255 0
-0.386715 -0.495077 0.147429 0 255 0
0.031968 0.123548 0.137970 0 255 0
-0.097810 -0.148593 -0.464401 0 255 0
0.070550 0.077244 0.416996 0 255 0
-0.053617 0.114293 0.323116 0 255 0
-0.034161 0.121658 0.178669 0 255 0
-0.083174 -0.117799 0.505286 0 255 0
0.002854 0.113142 0.008006 0 255 0
0.323336 0.460284 0.011345 0 255 0
0.013900 -0.172106 0.016641 0 255 0
0.003554 -0.169127 0.431156 0 255 0
0.045436 -0.165948 0.408440 0 255 0
-0.426496 0.349928 -0.106156 0 255 0
0.202977 -0.092451 0.113524 0 255 0
0.123059 -0.012375 -0.391772 0 255 0
-0.180183 -0.090829 -0.399690 0 255 0
-0.071518 -0.059039 -0.464772 0 255 0
-0.079982 -0.177658 0.289301 0 255 0
-0.117788 -0.063799 -0.282286 0 255 0
0.006001 -0.153112 0.468830 0 255 0
-0.133337 -0.075436 0.493510 0 255 0
0.134946 -0.072765 -0.313977 0 255 0
-0.062719 0.083905 0.406736 0 255 0
-0.124535 0.110990 0.241877 0 255 0
0.176594 -0.114289 -0.412689 0 255 0
-0.118857 -0.043297 -0.444087 0 255 0
-0.096975 -0.024338 -0.395070 0 255 0
0.195403 -0.052601 -0.096284 0 255 0
-0.040573 -0.181822 -0.303213 0 255 0
-0.119194 -0.125953 0.396410 0 255 0
0.009705 0.122700 0.140918 0 255 0
0.088731 -0.174489 0.174244 0 255 0
-0.123854 0.129549 0.201095 0 255 0
-0.192939 -0.165276 -0.096848 0 255 0
-0.041974 -0.181873 -0.396658 0 255 0
-0.191717 -0.100283 0.434905 0 255 0
-0.170461 -0.111911 0.397873 0 255 0
-0.015971 0.018326 -0.207725 0 255 0
0.154773 -0.142740 0.242094 0 255 0
0.205513 -0.025994 0.007530 0 255 0
-0.197454 -0.100577 0.230241 0 255 0
0.227293 0.242173 -0.263842 0 255 0
0.158217 0.072671 0.178263 0 255 0
-0.011499 0.124676 0.292265 0 255 0
0.211931 0.434737 -0.123567 0 255 0
0.066443 -0.178004 -0.262506 0 255 0
-0.323599 0.027839 -0.337968 0 255 0
0.195320 -0.046857 -0.029986 0 255 0
0.097718 -0.082842 0.475387 0 255 0
0.483303 0.318145 -0.163467 0 255 0
-0.187610 0.002590 0.217315 0 255 0
0.042670 -0.031699 -0.464865 0 255 0
-0.196844 -0.054666 0.204862 0 255 0
0.125125 0.110884 0.282413 0 255 0
0.262726 0.175040 -0.039043 0 255 0
-0.032118 -0.382097 0.199816 0 255 0
0.006745 0.122621 0.180281 0 255 0
-0.151335 -0.177452 0.160999 0 255 0
-0.065285 -0.427609 -0.338312 0 255 0
-0.040985 0.113028 -0.009442 0 255 0
0.049929 -0.183204 -0.393213 0 255 0
-0.018201 0.115733 0.328975 0 255 0
-0.149030 -0.115434 -0.473064 0 255 0
0.163229 -0.170915 0.445769 0 255 0
0.076321 -0.101659 0.499980 0 255 0
-0.141070 0.061923 -0.110550 0 255 0
0.070263 0.005121 -0.282135 0 255 0
0.201118 -0.103564 -0.124233 0 255 0
0.144764 0.080093 0.292281 0 255 0
0.062022 0.123456 0.286914 0 255 0
0.082725 -0.172527 0.101022 0 255 0
-0.002705 0.118644 0.021823 0 255 0
-0.341544 0.165980 -0.427335 0 255 0
0.353131 0.251596 -0.488515 0 255 0
0.072255 -0.172402 0.405976 0 255 0
0.323368 -0.425907 0.343587 0 255 0
-0.321316 -0.447683 0.274971 0 255 0
-0.121735 -0.160662 -0.370096 0 255 0
0.462016 0.401098 -0.073781 0 255 0
0.093893 0.112802 0.328746 0 255 0
-0.109180 -0.184764 -0.248096 0 255 0
0.104525 0.113596 -0.264184 0 255 0
-0.393876 0.112262 0.223678 0 255 0
0.088441 -0.175214 -0.041769 0 255 0
-0.416128 0.377103 0.436125 0 255 0
-0.014610 -0.171642 -0.447757 0 255 0
0.111834 0.011946 -0.238704 0 255 0
-0.190511 -0.143420 -0.187663 0 255 0
0.199732 -0.082640 0.052964 0 255 0
-0.151031 -0.216999 0.271349 0 255 0
0.015364 0.120260 0.109967 0 255 0
-0.075782 0.086505 -0.081687 0 255 0
0.062125 -0.154172 0.465302 0 255 0
0.201161 -0.086189 -0.140606 0 255 0
-0.189878 -0.114048 -0.367213 0 255 0
-0.047313 0.113455 0.336137 0 255 0
-0.194711 -0.139786 0.223996 0 255 0
0.197601 -0.055997 0.168405 0 255 0
0.197146 -0.069075 -0.319519 0 255 0
-0.068953 -0.015895 -0.380707 0 255 0
-0.051863 0.088247 -0.082434 0 255 0
0.120493 -0.162152 0.468783 0 255 0
0.146979 -0.170471 -0.451466 0 255 0
-0.133136 -0.028792 0.470599 0 255 0
0.118218 -0.056490 -0.245106 0 255 0
0.077323 0.214928 -0.239991 0 255 0
-0.127624 -0.141560 0.238542 0 255 0
0.159299 -0.173577 -0.098443 0 255 0
0.160318 -0.087910 -0.352404 0 255 0
