ply
format ascii 1.0
element vertex 1306
property float x
property float y
property float z
property uchar red
property uchar green
property uchar blue
end_header
-0.109552 0.010914 -0.323796 255 0 0
-0.053007 -0.104107 -0.433223 255 0 0
-0.034282 -0.107810 0.109986 255 0 0
-0.019370 0.105538 -0.050403 255 0 0
-0.054115 0.061432 0.313271 255 0 0
0.006353 -0.103090 -0.166592 255 0 0
-0.067311 0.033557 -0.233045 255 0 0
0.167196 0.038397 -0.058597 255 0 0
0.184690 0.009567 0.368692 255 0 0
0.182286 -0.075315 -0.399412 255 0 0
-0.185587 -0.076375 0.229549 255 0 0
0.097562 -0.085865 0.452238 255 0 0
-0.072943 0.106067 -0.044609 255 0 0
0.016799 -0.108465 -0.031226 255 0 0
-0.006407 0.024987 0.444223 255 0 0
0.038425 -0.080541 0.465312 255 0 0
0.017933 0.113025 0.027239 255 0 0
0.183528 -0.104940 0.160310 255 0 0
-0.155947 -0.106979 -0.024457 255 0 0
-0.109710 -0.109280 0.123503 255 0 0
0.181887 0.004536 0.405419 255 0 0
0.102956 0.036223 0.377353 255 0 0
0.046578 0.055841 0.354299 255 0 0
-0.188296 -0.031222 0.010986 255 0 0
-0.198506 -0.025328 0.399170 255 0 0
0.072832 -0.110080 -0.360273 255 0 0
-0.008924 -0.104879 0.100096 255 0 0
0.164706 0.022675 -0.307779 255 0 0
-0.203562 -0.000726 -0.133085 255 0 0
-0.204899 -0.002614 0.163961 255 0 0
-0.079603 0.083994 0.160528 255 0 0
0.089658 -0.106989 -0.102790 255 0 0
-0.114123 -0.108880 0.154702 255 0 0
0.127729 0.070240 0.157366 255 0 0
0.023887 -0.107799 -0.458784 255 0 0
0.187505 -0.043166 0.041859 255 0 0
0.064116 0.104030 -0.021283 255 0 0
-0.016070 -0.105725 -0.343024 255 0 0
-0.002944 0.090952 -0.081644 255 0 0
-0.123600 0.087587 -0.037944 255 0 0
-0.092153 0.025959 -0.273980 255 0 0
0.178189 0.030652 -0.166737 255 0 0
0.037103 -0.038641 -0.479572 255 0 0
-0.195285 -0.031514 -0.088167 255 0 0
0.103971 -0.105890 -0.113455 255 0 0
-0.013257 -0.105963 0.109882 255 0 0
-0.070827 -0.109189 -0.346365 255 0 0
0.152066 0.034215 -0.171010 255 0 0
-0.006778 0.039507 -0.174774 255 0 0
0.140197 0.064778 0.051673 255 0 0
0.006636 -0.109740 -0.316883 255 0 0
0.199733 0.034457 0.074824 255 0 0
-0.007674 -0.109836 -0.434174 255 0 0
0.117210 0.057042 0.276846 255 0 0
-0.088065 -0.105527 0.356238 255 0 0
0.087245 -0.101080 0.348322 255 0 0
-0.154700 -0.023067 -0.317067 255 0 0
-0.127285 -0.033111 -0.283175 255 0 0
0.022323 -0.104582 0.168446 255 0 0
-0.105300 -0.060680 0.492004 255 0 0
0.191423 0.042468 0.195395 255 0 0
0.056457 0.068876 0.306615 255 0 0
-0.097034 0.051991 0.429345 255 0 0
-0.165166 -0.038013 -0.334792 255 0 0
0.105496 -0.109535 0.167367 255 0 0
-0.141702 -0.075609 0.226585 255 0 0
-0.006565 -0.037159 -0.165003 255 0 0
0.050524 -0.043150 -0.470519 255 0 0
0.088059 0.020482 -0.311498 255 0 0
0.194346 0.035835 0.004658 255 0 0
-0.186162 -0.086134 -0.392101 255 0 0
0.195050 0.007818 0.373796 255 0 0
-0.045867 0.114661 0.045455 255 0 0
-0.154991 0.039234 -0.065190 255 0 0
-0.184197 -0.001427 -0.361770 255 0 0
0.208379 0.034734 0.195346 255 0 0
0.109045 0.054100 -0.145142 255 0 0
-0.126304 0.080445 0.115809 255 0 0
0.146942 0.008040 -0.227353 255 0 0
0.206339 0.025243 -0.050582 255 0 0
-0.183019 -0.027443 -0.370223 255 0 0
-0.060321 -0.005748 -0.411749 255 0 0
-0.155782 -0.102049 -0.038567 255 0 0
0.198006 -0.030602 0.400533 255 0 0
0.199717 0.005315 -0.046149 255 0 0
0.137461 0.058440 0.235284 255 0 0
-0.050031 -0.100920 0.228153 255 0 0
0.191008 0.016837 0.304406 255 0 0
-0.082794 -0.109554 -0.299270 255 0 0
-0.117855 -0.107592 -0.260563 255 0 0
-0.060958 -0.108621 -0.333255 255 0 0
0.106979 -0.108870 0.199182 255 0 0
-0.077983 -0.040104 0.488599 255 0 0
-0.096459 -0.071460 0.475740 255 0 0
-0.074142 0.113075 0.020231 255 0 0
-0.151132 0.050163 -0.113460 255 0 0
0.137245 -0.111479 -0.402499 255 0 0
-0.093016 -0.112415 -0.417172 255 0 0
0.106414 0.053002 0.425051 255 0 0
0.128646 -0.095250 0.303158 255 0 0
0.126153 -0.034567 0.384473 255 0 0
0.056472 -0.102731 -0.185051 255 0 0
-0.050470 -0.106119 0.254558 255 0 0
-0.084687 -0.009110 0.482074 255 0 0
0.155290 -0.020169 0.397048 255 0 0
0.018170 -0.102848 0.128462 255 0 0
-0.054598 -0.108058 -0.267093 255 0 0
0.090040 0.015792 -0.317944 255 0 0
-0.120989 0.091982 -0.066713 255 0 0
0.191815 -0.048525 -0.041291 255 0 0
-0.115197 0.005326 -0.370987 255 0 0
0.089222 -0.099800 -0.149938 255 0 0
0.059188 -0.061966 0.479546 255 0 0
-0.186360 -0.078946 -0.121322 255 0 0
-0.102608 -0.104655 0.139930 255 0 0
-0.198421 0.008195 0.360074 255 0 0
-0.199808 -0.100811 -0.343910 255 0 0
-0.041065 -0.095742 0.090768 255 0 0
0.064739 0.107864 -0.020709 255 0 0
0.171162 0.047895 0.231395 255 0 0
0.136189 -0.011530 -0.407436 255 0 0
0.122512 -0.086332 -0.261037 255 0 0
-0.085666 -0.008480 0.482621 255 0 0
0.086055 -0.015880 -0.427037 255 0 0
0.206739 -0.010578 0.139808 255 0 0
-0.091675 0.037617 -0.193077 255 0 0
-0.172014 0.057247 -0.124024 255 0 0
0.122966 -0.081169 0.010822 255 0 0
0.139498 0.028071 -0.242999 255 0 0
0.024005 -0.077998 -0.464883 255 0 0
0.022391 0.108303 -0.050168 255 0 0
-0.197556 -0.007958 0.053193 255 0 0
0.151927 -0.053627 -0.333356 255 0 0
-0.086857 -0.109259 -0.346805 255 0 0
0.115030 -0.017943 0.481580 255 0 0
0.049951 -0.108577 0.056159 255 0 0
-0.146164 0.029928 -0.253212 255 0 0
-0.079751 -0.098531 0.263639 255 0 0
-0.112145 -0.102590 0.332817 255 0 0
0.054720 0.067401 0.220018 255 0 0
-0.173084 0.033487 -0.064821 255 0 0
0.070800 0.083652 0.195087 255 0 0
0.188499 -0.029724 -0.350361 255 0 0
0.107642 0.039714 -0.157116 255 0 0
-0.091505 0.039268 -0.157623 255 0 0
-0.076825 -0.107863 0.301094 255 0 0
-0.060402 -0.108171 0.109229 255 0 0
0.114447 0.030425 -0.230676 255 0 0
-0.003714 0.056248 0.438915 255 0 0
-0.202370 -0.010736 0.181199 255 0 0
0.109366 -0.108537 -0.203447 255 0 0
-0.007292 -0.104280 -0.137274 255 0 0
-0.016260 -0.104039 -0.278745 255 0 0
-0.182471 -0.109663 0.085591 255 0 0
-0.168195 0.009669 0.431426 255 0 0
0.185390 -0.106097 -0.058828 255 0 0
0.126924 0.080773 0.144004 255 0 0
0.018327 -0.106635 0.177749 255 0 0
0.205926 0.031002 0.192764 255 0 0
-0.011560 -0.105498 -0.439008 255 0 0
0.082747 -0.105343 -0.014709 255 0 0
0.010629 0.088929 -0.106865 255 0 0
-0.098210 -0.099353 -0.447034 255 0 0
-0.018492 0.048680 0.237429 255 0 0
-0.064574 -0.101065 0.440549 255 0 0
0.199152 -0.089370 -0.100349 255 0 0
-0.186808 -0.097509 -0.396078 255 0 0
-0.183799 -0.001401 -0.346564 255 0 0
0.096281 -0.092338 -0.440464 255 0 0
0.195979 0.033115 0.236171 255 0 0
-0.183573 0.015785 -0.252337 255 0 0
-0.111440 0.003253 -0.380779 255 0 0
-0.199231 -0.101526 -0.169165 255 0 0
-0.139977 0.010783 0.445741 255 0 0
0.186767 -0.104174 -0.168782 255 0 0
-0.150685 0.046894 0.360168 255 0 0
-0.063507 0.077351 0.195684 255 0 0
-0.000272 -0.111864 -0.337364 255 0 0
0.126181 -0.050490 -0.456895 255 0 0
-0.169289 -0.018606 -0.398496 255 0 0
0.125107 -0.101611 0.284727 255 0 0
-0.107264 -0.103571 0.208873 255 0 0
0.198695 -0.087711 0.081980 255 0 0
0.113647 0.099893 0.027473 255 0 0
-0.084755 0.102442 0.107869 255 0 0
-0.120738 -0.095465 0.396265 255 0 0
0.022967 -0.101673 -0.117877 255 0 0
-0.184130 -0.089182 0.408666 255 0 0
-0.010345 -0.056608 0.497553 255 0 0
-0.121803 -0.094519 -0.324696 255 0 0
0.125456 -0.025316 -0.324502 255 0 0
-0.144720 0.006396 0.447994 255 0 0
-0.093837 -0.101308 -0.125408 255 0 0
0.204387 -0.091254 -0.142848 255 0 0
0.104857 -0.012213 -0.408387 255 0 0
0.139284 0.078783 -0.062643 255 0 0
0.038739 0.050494 0.411791 255 0 0
-0.035590 0.029663 -0.238062 255 0 0
0.124502 -0.091926 -0.243109 255 0 0
0.069792 -0.109106 0.079722 255 0 0
-0.163502 -0.039846 0.450117 255 0 0
-0.191184 -0.074750 -0.361622 255 0 0
-0.196668 0.018396 0.342497 255 0 0
-0.040272 0.049897 0.428398 255 0 0
0.188047 0.041677 0.315007 255 0 0
0.062029 0.038446 -0.203768 255 0 0
0.151298 0.032794 -0.166304 255 0 0
0.185113 -0.023661 -0.362219 255 0 0
0.115730 -0.107368 0.205276 255 0 0
0.195093 -0.077896 -0.009649 255 0 0
-0.194988 -0.041136 0.407419 255 0 0
0.176293 0.028774 -0.145851 255 0 0
-0.171704 -0.102799 -0.049397 255 0 0
-0.193019 0.004348 -0.287821 255 0 0
-0.043082 -0.104828 0.007570 255 0 0
0.191108 -0.043680 -0.368054 255 0 0
0.165150 0.053607 0.173626 255 0 0
0.128595 -0.112738 -0.342623 255 0 0
-0.096910 -0.106608 0.406585 255 0 0
-0.188213 -0.088572 0.204519 255 0 0
-0.031716 0.096801 -0.071790 255 0 0
-0.033748 -0.091722 -0.465184 255 0 0
0.062616 -0.105504 -0.153839 255 0 0
0.149329 -0.097266 0.431349 255 0 0
-0.101283 0.025190 0.443995 255 0 0
0.160162 0.015892 -0.361189 255 0 0
-0.143691 -0.108551 0.019596 255 0 0
-0.167587 0.061805 -0.128066 255 0 0
0.098913 -0.021621 0.486108 255 0 0
0.084406 -0.102333 0.082351 255 0 0
-0.042572 0.104811 0.089050 255 0 0
0.189294 -0.054712 -0.362552 255 0 0
0.123459 -0.107532 0.113502 255 0 0
-0.193150 -0.100897 -0.009205 255 0 0
-0.199556 0.003704 -0.108777 255 0 0
0.146930 -0.020583 0.467168 255 0 0
-0.115224 -0.102945 0.245587 255 0 0
0.185220 -0.108735 -0.038365 255 0 0
-0.092165 0.008380 -0.373228 255 0 0
-0.186876 0.018374 0.386243 255 0 0
-0.142047 0.023084 -0.271519 255 0 0
-0.057673 0.001233 -0.396315 255 0 0
-0.091423 0.015879 -0.316706 255 0 0
-0.190884 -0.020402 0.418048 255 0 0
-0.159970 -0.087356 -0.166787 255 0 0
-0.191436 -0.015832 0.081154 255 0 0
-0.071960 -0.106337 0.248222 255 0 0
-0.002402 -0.088979 -0.462629 255 0 0
-0.189449 -0.057903 0.409838 255 0 0
-0.137588 0.050521 0.345357 255 0 0
-0.204187 -0.087800 -0.051552 255 0 0
0.036430 -0.104158 -0.055204 255 0 0
0.170205 -0.048128 -0.413221 255 0 0
0.149961 0.057131 0.312210 255 0 0
0.128824 -0.103943 0.224589 255 0 0
0.199382 0.009756 0.131133 255 0 0
0.100117 0.050991 0.409788 255 0 0
-0.033480 0.048619 0.267024 255 0 0
-0.120705 -0.106323 -0.264888 255 0 0
-0.111515 0.106692 0.063315 255 0 0
0.031040 -0.016172 0.494761 255 0 0
0.203140 0.028987 0.094799 255 0 0
0.195005 -0.012883 -0.039942 255 0 0
0.125291 -0.058680 -0.280457 255 0 0
0.200778 -0.080246 -0.049895 255 0 0
-0.003603 0.095495 0.117208 255 0 0
-0.147341 -0.041581 -0.439610 255 0 0
0.155641 0.022503 -0.275524 255 0 0
-0.130318 -0.046498 -0.457441 255 0 0
0.058671 -0.104531 -0.165273 255 0 0
-0.022174 -0.104217 0.309166 255 0 0
-0.178152 0.036268 0.368925 255 0 0
0.126312 -0.108232 -0.049024 255 0 0
-0.201947 -0.011390 0.243556 255 0 0
0.140137 0.013493 -0.246598 255 0 0
-0.094413 0.069879 -0.133759 255 0 0
0.161947 -0.109161 0.171352 255 0 0
0.197415 -0.068141 0.055412 255 0 0
0.091678 0.106307 0.073670 255 0 0
-0.062771 -0.109207 -0.189751 255 0 0
-0.194363 -0.017793 0.038606 255 0 0
-0.125214 0.014379 0.439710 255 0 0
-0.141792 0.007496 0.377599 255 0 0
-0.050679 -0.062339 0.483330 255 0 0
-0.189556 0.005014 0.397082 255 0 0
-0.119927 -0.108677 -0.090204 255 0 0
-0.007260 -0.108829 -0.322919 255 0 0
0.097983 -0.109186 0.251044 255 0 0
0.012514 0.015229 -0.364157 255 0 0
0.150966 -0.104363 0.221191 255 0 0
0.100530 -0.104960 0.013942 255 0 0
-0.199058 -0.093681 -0.165837 255 0 0
-0.185181 -0.082124 -0.397446 255 0 0
0.087361 -0.108439 0.156705 255 0 0
0.126840 0.086595 -0.076079 255 0 0
-0.094646 -0.106043 0.230009 255 0 0
0.169811 -0.046995 -0.413481 255 0 0
-0.118665 -0.089516 0.324525 255 0 0
0.172635 0.039169 -0.080873 255 0 0
0.009611 0.053375 0.398635 255 0 0
-0.136174 -0.039297 -0.330605 255 0 0
0.061286 -0.103186 0.131657 255 0 0
0.056814 0.089609 -0.105943 255 0 0
-0.027688 0.063947 0.111468 255 0 0
-0.192838 -0.040367 -0.371953 255 0 0
0.016658 0.032455 0.433286 255 0 0
-0.124381 0.067424 0.171222 255 0 0
0.176081 -0.106238 0.179240 255 0 0
0.142727 0.031754 -0.212757 255 0 0
-0.062706 0.077387 0.186400 255 0 0
0.118312 -0.104890 -0.420030 255 0 0
-0.031327 -0.100242 0.087777 255 0 0
0.146914 -0.107341 -0.046409 255 0 0
0.198495 -0.013972 -0.194021 255 0 0
-0.073179 -0.079915 0.462761 255 0 0
-0.077927 -0.106880 0.000404 255 0 0
0.178239 -0.035620 -0.357313 255 0 0
0.180051 -0.071458 0.028076 255 0 0
0.010262 0.051893 -0.162406 255 0 0
-0.049293 0.084802 -0.099880 255 0 0
0.051774 -0.093301 0.450406 255 0 0
0.139578 0.069539 -0.007008 255 0 0
-0.182653 -0.088098 -0.390339 255 0 0
-0.202320 -0.077330 0.033582 255 0 0
0.199797 -0.005758 0.391352 255 0 0
0.022437 0.081127 -0.110724 255 0 0
-0.205400 0.003033 -0.239210 255 0 0
0.107112 -0.023623 0.319740 255 0 0
-0.020609 -0.105839 -0.423771 255 0 0
-0.133198 0.011024 -0.228988 255 0 0
-0.061899 -0.102313 0.218288 255 0 0
-0.081444 -0.032628 -0.452016 255 0 0
0.152024 -0.098610 0.171543 255 0 0
0.088638 0.081436 0.232454 255 0 0
0.055575 -0.087631 0.449510 255 0 0
0.188020 -0.090918 0.171456 255 0 0
-0.035837 0.039587 0.350711 255 0 0
0.120986 0.042051 -0.161877 255 0 0
-0.082889 0.103801 -0.064912 255 0 0
-0.118856 -0.049579 -0.225132 255 0 0
0.103811 0.084560 -0.098246 255 0 0
-0.098191 -0.106542 0.106302 255 0 0
0.111062 0.031723 -0.241699 255 0 0
-0.189876 -0.092091 -0.162915 255 0 0
0.054523 -0.111539 -0.475276 255 0 0
0.035034 -0.108889 0.047368 255 0 0
-0.171771 0.046342 0.282294 255 0 0
-0.112295 -0.047846 -0.464712 255 0 0
-0.198894 0.013417 -0.290229 255 0 0
0.115499 -0.107183 -0.241791 255 0 0
0.165637 0.045721 0.270868 255 0 0
0.122825 -0.071960 0.456770 255 0 0
0.124537 0.028429 -0.164326 255 0 0
-0.069710 0.076264 0.229969 255 0 0
0.155843 0.055266 0.315670 255 0 0
0.018302 0.049354 0.400443 255 0 0
-0.000555 -0.096336 0.224079 255 0 0
0.194409 0.027261 0.314545 255 0 0
0.129097 -0.075700 0.323082 255 0 0
-0.063064 0.078206 0.157532 255 0 0
0.010518 -0.017196 -0.429977 255 0 0
0.197335 -0.067443 -0.363680 255 0 0
0.126153 -0.049670 -0.294864 255 0 0
0.043704 -0.033262 -0.460431 255 0 0
0.130253 0.087153 0.089934 255 0 0
0.090594 0.038125 0.410435 255 0 0
0.105690 -0.047657 -0.468570 255 0 0
0.167489 -0.107619 0.159920 255 0 0
-0.059599 0.047554 -0.173702 255 0 0
-0.042872 0.058912 0.222123 255 0 0
-0.175674 -0.110140 0.214023 255 0 0
-0.172414 -0.039004 -0.406356 255 0 0
-0.015386 -0.053157 -0.492222 255 0 0
-0.169961 0.045081 0.089215 255 0 0
-0.069005 -0.101359 -0.225478 255 0 0
-0.098377 0.081628 -0.100612 255 0 0
-0.183993 -0.100831 -0.166904 255 0 0
0.069490 -0.000854 -0.399038 255 0 0
0.126347 0.056066 -0.141713 255 0 0
0.090071 0.069674 -0.133621 255 0 0
0.197361 0.018901 0.098007 255 0 0
0.175133 -0.109415 0.089416 255 0 0
-0.017164 0.052300 -0.160099 255 0 0
0.203767 -0.036827 -0.154147 255 0 0
-0.034537 -0.104826 0.359460 255 0 0
0.023399 0.038342 -0.221784 255 0 0
0.166850 -0.108819 -0.052544 255 0 0
-0.061958 -0.110107 -0.167024 255 0 0
0.038836 -0.111497 -0.360856 255 0 0
0.204793 0.009865 0.164838 255 0 0
-0.178746 -0.106367 0.099110 255 0 0
0.195318 -0.071598 0.159167 255 0 0
-0.089351 0.106457 0.071071 255 0 0
0.135892 -0.016630 -0.412591 255 0 0
-0.142428 -0.095712 0.424181 255 0 0
0.200424 0.021577 -0.046950 255 0 0
0.093657 0.065129 0.300692 255 0 0
-0.193882 -0.082148 0.072129 255 0 0
0.196700 -0.004193 -0.087932 255 0 0
-0.158620 -0.037298 -0.426424 255 0 0
0.022499 0.065819 0.113353 255 0 0
0.198269 -0.004476 -0.044293 255 0 0
0.188774 0.043517 0.253997 255 0 0
0.110683 -0.106665 -0.129992 255 0 0
-0.045014 0.001112 0.477736 255 0 0
0.164388 -0.098406 0.008312 255 0 0
0.180533 -0.039259 -0.177603 255 0 0
-0.204814 0.031314 0.051026 255 0 0
0.051852 -0.102257 -0.110920 255 0 0
-0.125634 -0.102012 -0.171664 255 0 0
-0.181716 0.045464 0.187775 255 0 0
0.079736 -0.052408 0.487396 255 0 0
0.134046 -0.102104 -0.013852 255 0 0
-0.120273 -0.042270 0.344761 255 0 0
-0.126010 -0.040850 -0.257305 255 0 0
0.113264 0.054648 0.271283 255 0 0
0.126628 -0.060666 -0.222705 255 0 0
0.154335 0.050549 0.225871 255 0 0
-0.051813 0.067787 0.262334 255 0 0
0.086388 -0.107537 0.039169 255 0 0
0.152162 0.046313 -0.042628 255 0 0
0.179170 -0.107598 -0.050653 255 0 0
0.091282 -0.005872 -0.402155 255 0 0
0.008618 -0.106464 -0.369884 255 0 0
0.195128 0.004170 -0.298385 255 0 0
0.190517 0.025523 0.309635 255 0 0
0.159777 -0.108785 -0.058990 255 0 0
0.037526 -0.070192 0.482395 255 0 0
0.136238 0.017105 0.274092 255 0 0
-0.171421 -0.113230 -0.381251 255 0 0
-0.114538 0.029943 -0.247620 255 0 0
-0.104669 -0.106105 0.097087 255 0 0
0.116192 -0.108807 0.148003 255 0 0
0.195902 0.013672 -0.186980 255 0 0
-0.075718 -0.104470 -0.263406 255 0 0
0.124010 -0.109105 -0.314270 255 0 0
-0.148564 -0.096381 0.038525 255 0 0
-0.144038 0.001232 0.380427 255 0 0
0.081546 0.105325 -0.022100 255 0 0
0.142415 0.011077 -0.350437 255 0 0
-0.199232 0.017247 0.280341 255 0 0
-0.050593 0.047196 0.453542 255 0 0
-0.106032 -0.088922 0.447158 255 0 0
-0.141513 0.062357 -0.091657 255 0 0
0.125444 -0.071219 0.330483 255 0 0
-0.142637 0.074946 0.085454 255 0 0
0.107422 -0.107455 -0.106620 255 0 0
0.165172 0.050167 0.226701 255 0 0
0.058546 -0.096420 0.343633 255 0 0
-0.052004 0.109039 -0.033165 255 0 0
-0.019666 0.110066 0.062993 255 0 0
0.097411 0.072388 0.242432 255 0 0
0.185185 -0.052470 0.428398 255 0 0
0.189899 0.043917 0.104072 255 0 0
-0.139276 -0.036441 -0.440507 255 0 0
-0.116016 0.100944 -0.054932 255 0 0
-0.077380 -0.098636 0.256735 255 0 0
0.153981 -0.068294 -0.426893 255 0 0
-0.090773 0.002129 -0.373855 255 0 0
-0.134055 0.000411 -0.380351 255 0 0
0.034239 -0.052577 -0.492642 255 0 0
0.119512 -0.039018 -0.456692 255 0 0
-0.190952 -0.106339 0.007818 255 0 0
0.131818 -0.104084 0.106463 255 0 0
0.033283 0.050797 -0.177308 255 0 0
-0.176488 0.037225 0.327888 255 0 0
0.199081 0.027352 0.026677 255 0 0
0.002900 -0.102161 0.383285 255 0 0
-0.199332 -0.102584 -0.137313 255 0 0
0.127398 0.001843 -0.395173 255 0 0
0.049683 0.102510 -0.037445 255 0 0
0.104714 0.024632 0.442561 255 0 0
0.132430 0.029151 -0.164565 255 0 0
-0.004732 0.013714 -0.373647 255 0 0
0.194837 -0.072165 0.173536 255 0 0
0.155949 -0.100620 0.159380 255 0 0
0.068074 -0.036389 -0.470056 255 0 0
-0.027395 -0.103878 -0.057065 255 0 0
-0.086355 -0.109016 -0.412666 255 0 0
0.134153 0.021474 -0.319252 255 0 0
0.080783 -0.109513 0.175457 255 0 0
-0.098515 0.024430 -0.302082 255 0 0
-0.016949 0.038601 -0.200067 255 0 0
0.145712 -0.023450 -0.415291 255 0 0
-0.025683 0.099758 0.091760 255 0 0
0.059962 0.012481 0.452911 255 0 0
0.111052 -0.091061 0.444433 255 0 0
0.194240 -0.022245 0.056362 255 0 0
0.112518 0.002614 -0.369341 255 0 0
0.114705 0.033027 -0.194252 255 0 0
-0.132135 0.032107 0.404129 255 0 0
0.022629 0.018342 -0.356312 255 0 0
0.192816 0.036338 0.280211 255 0 0
0.005201 -0.025695 -0.384111 255 0 0
0.118385 -0.108023 0.119996 255 0 0
-0.110901 -0.109181 0.067128 255 0 0
-0.189404 0.044680 0.137605 255 0 0
-0.194730 -0.038480 -0.103567 255 0 0
0.169893 -0.010265 -0.307389 255 0 0
0.190118 -0.105322 -0.357054 255 0 0
-0.090975 -0.109566 -0.403689 255 0 0
0.162015 0.026647 -0.262771 255 0 0
-0.166551 -0.083561 0.436272 255 0 0
0.190691 0.011923 0.357110 255 0 0
0.181692 0.017003 -0.301379 255 0 0
-0.193193 -0.063115 0.205127 255 0 0
0.199035 -0.068243 -0.165824 255 0 0
0.202207 -0.048376 -0.164812 255 0 0
0.092016 0.004494 -0.382485 255 0 0
-0.135599 -0.058999 -0.439042 255 0 0
-0.165425 -0.005159 0.433652 255 0 0
-0.199919 0.021053 0.320821 255 0 0
0.079169 0.035628 -0.229026 255 0 0
0.046679 0.035432 -0.257628 255 0 0
0.129265 0.092937 0.069580 255 0 0
0.075657 -0.108440 0.267758 255 0 0
-0.043154 0.042762 0.384777 255 0 0
0.053294 -0.108990 -0.059974 255 0 0
-0.196436 0.036724 0.301226 255 0 0
0.015922 -0.103776 0.330969 255 0 0
-0.045328 -0.101484 -0.188003 255 0 0
0.126866 -0.107851 -0.326642 255 0 0
0.136463 0.077382 -0.021056 255 0 0
0.045501 -0.107610 -0.204318 255 0 0
-0.119589 0.021714 -0.272536 255 0 0
-0.063248 0.108723 -0.043982 255 0 0
0.054580 0.021688 -0.337481 255 0 0
0.056981 0.012941 -0.359619 255 0 0
0.093975 -0.101528 -0.180524 255 0 0
0.127257 -0.103103 0.308494 255 0 0
-0.152453 -0.018323 -0.394228 255 0 0
-0.186214 -0.080041 0.006727 255 0 0
-0.046978 -0.102897 0.387059 255 0 0
-0.159812 0.044907 0.341486 255 0 0
-0.180688 -0.019166 -0.366428 255 0 0
0.103687 -0.112424 -0.404838 255 0 0
-0.115116 -0.021653 -0.274151 255 0 0
0.061186 -0.107322 0.014315 255 0 0
0.191219 0.016808 -0.098102 255 0 0
-0.021305 -0.099867 -0.069984 255 0 0
0.017880 0.064049 -0.132504 255 0 0
0.032495 -0.112579 -0.454689 255 0 0
-0.197446 -0.007671 -0.049573 255 0 0
0.163553 -0.102114 0.418917 255 0 0
-0.138890 -0.108806 0.037044 255 0 0
0.190664 -0.086125 0.061238 255 0 0
-0.205146 0.026355 0.119745 255 0 0
0.174665 0.036700 0.358486 255 0 0
0.169373 0.009365 -0.359768 255 0 0
0.128198 0.012848 -0.259040 255 0 0
-0.154037 0.048174 -0.002889 255 0 0
-0.010982 -0.047314 0.221481 255 0 0
0.056874 0.079588 -0.125168 255 0 0
-0.031267 -0.084378 0.457961 255 0 0
-0.205460 -0.002282 -0.204569 255 0 0
-0.127732 -0.102621 0.036417 255 0 0
-0.078610 0.100924 0.104090 255 0 0
-0.189861 -0.004026 0.060917 255 0 0
0.038225 0.102358 -0.056042 255 0 0
0.029006 -0.102409 0.124808 255 0 0
0.067886 0.050683 0.402293 255 0 0
0.033791 -0.034078 -0.461362 255 0 0
-0.199516 -0.013181 0.249081 255 0 0
-0.205559 0.024021 -0.034851 255 0 0
-0.029723 -0.110986 -0.245210 255 0 0
0.100629 -0.108326 -0.099218 255 0 0
0.094026 0.084188 0.163209 255 0 0
-0.100846 -0.113240 -0.419410 255 0 0
0.005464 -0.104708 -0.090295 255 0 0
-0.038974 -0.103139 -0.029911 255 0 0
0.134673 -0.017180 0.240407 255 0 0
0.167343 -0.020688 0.452946 255 0 0
0.176865 0.015246 -0.349025 255 0 0
0.065533 -0.003251 0.478835 255 0 0
-0.041434 0.075785 -0.133227 255 0 0
0.098771 -0.067002 0.471461 255 0 0
-0.133012 0.082220 0.016147 255 0 0
-0.065306 -0.021049 -0.444207 255 0 0
-0.129537 -0.101542 -0.054497 255 0 0
-0.114535 0.099597 0.007094 255 0 0
0.070602 -0.109603 -0.110520 255 0 0
0.196290 -0.092072 -0.037464 255 0 0
-0.094121 0.104443 0.058282 255 0 0
-0.189976 0.009564 0.385904 255 0 0
-0.128051 -0.023145 0.321505 255 0 0
0.106441 -0.108034 -0.422084 255 0 0
0.140885 -0.091656 0.427317 255 0 0
-0.039691 -0.102782 -0.147790 255 0 0
0.127050 -0.070074 -0.179486 255 0 0
-0.028084 0.102143 -0.049241 255 0 0
0.116525 -0.111528 -0.399715 255 0 0
0.112106 -0.062628 -0.445314 255 0 0
0.122795 -0.084621 -0.328412 255 0 0
-0.204518 -0.019903 0.183639 255 0 0
0.164508 0.052577 0.289590 255 0 0
0.122151 -0.040538 -0.456729 255 0 0
-0.202693 -0.040115 0.102302 255 0 0
-0.004703 -0.107110 0.004282 255 0 0
-0.024470 0.083263 -0.119833 255 0 0
-0.058881 0.027536 -0.289812 255 0 0
-0.012378 -0.099591 0.207820 255 0 0
0.090692 0.017777 -0.335650 255 0 0
-0.184029 -0.004393 0.249981 255 0 0
-0.128244 -0.058844 -0.234822 255 0 0
-0.118536 0.013303 -0.310485 255 0 0
-0.191292 -0.041467 -0.377087 255 0 0
-0.195054 -0.001865 0.011939 255 0 0
-0.157360 -0.105409 0.216917 255 0 0
0.186895 -0.046051 -0.000974 255 0 0
-0.062491 -0.008332 -0.424763 255 0 0
-0.061835 0.063121 0.328985 255 0 0
0.087130 0.074404 0.252661 255 0 0
0.075013 -0.108715 -0.461107 255 0 0
-0.078748 0.106442 0.045589 255 0 0
0.006323 -0.109497 -0.208631 255 0 0
-0.046798 -0.105691 0.317797 255 0 0
-0.198843 -0.056369 -0.351561 255 0 0
-0.139103 -0.105093 0.415521 255 0 0
-0.102399 -0.109374 0.231518 255 0 0
-0.094551 -0.113773 -0.384898 255 0 0
0.138804 0.062683 -0.090626 255 0 0
-0.178622 0.014622 -0.323448 255 0 0
-0.196667 0.016587 -0.165606 255 0 0
0.185942 0.036626 0.307523 255 0 0
-0.094544 -0.087535 0.458283 255 0 0
-0.099723 0.082495 -0.101015 255 0 0
0.178825 -0.096941 0.229432 255 0 0
0.047861 0.064074 0.274096 255 0 0
0.099188 -0.102207 -0.247693 255 0 0
0.075537 -0.107184 0.328126 255 0 0
-0.146308 0.054186 0.118329 255 0 0
-0.109232 -0.011236 -0.420106 255 0 0
0.174903 -0.066267 -0.400278 255 0 0
0.069030 -0.109633 -0.414698 255 0 0
0.057608 -0.100090 -0.114232 255 0 0
0.204036 0.038690 0.154271 255 0 0
-0.123344 0.059529 0.290017 255 0 0
-0.142897 -0.027474 -0.325578 255 0 0
0.122633 -0.108537 -0.365208 255 0 0
-0.110606 -0.104260 0.067895 255 0 0
-0.073744 -0.104306 -0.110539 255 0 0
-0.061776 -0.019619 -0.429578 255 0 0
0.052377 0.030554 -0.208892 255 0 0
-0.183401 0.043727 0.186274 255 0 0
0.171961 -0.087815 -0.422230 255 0 0
0.078734 -0.108695 0.093792 255 0 0
0.029052 -0.111668 -0.327504 255 0 0
-0.162194 0.041075 0.019820 255 0 0
-0.072027 -0.108882 -0.450456 255 0 0
0.177237 0.013294 -0.264708 255 0 0
0.109402 -0.108885 -0.017845 255 0 0
-0.004350 -0.100963 -0.188710 255 0 0
0.058534 0.069842 0.260035 255 0 0
0.142448 0.014309 0.268790 255 0 0
0.198775 -0.011397 0.002699 255 0 0
0.144164 0.059134 0.293523 255 0 0
0.018756 -0.018991 0.492429 255 0 0
0.010394 0.050324 0.200103 255 0 0
0.130267 0.064005 0.186297 255 0 0
0.073112 -0.106815 -0.478193 255 0 0
-0.118455 0.066679 0.232342 255 0 0
-0.149934 -0.102011 0.031201 255 0 0
-0.065244 -0.107664 -0.445172 255 0 0
0.090334 -0.104043 0.220350 255 0 0
-0.015518 -0.102437 0.171540 255 0 0
-0.176816 0.021228 -0.294531 255 0 0
0.150867 0.056207 0.183829 255 0 0
-0.035678 -0.006567 0.485746 255 0 0
0.138056 -0.109553 0.193486 255 0 0
0.101711 0.099640 -0.043319 255 0 0
0.166718 0.040403 0.375911 255 0 0
-0.025267 0.048274 0.284408 255 0 0
0.195787 0.018644 -0.241662 255 0 0
0.056228 0.075619 0.192585 255 0 0
-0.143984 -0.101524 -0.127539 255 0 0
0.071677 -0.105115 0.418085 255 0 0
-0.038657 0.031178 -0.294708 255 0 0
0.085645 -0.105636 -0.190893 255 0 0
0.064679 0.107232 0.056013 255 0 0
0.176094 -0.107313 0.047311 255 0 0
0.026873 0.090623 0.128128 255 0 0
0.116604 0.102280 -0.023956 255 0 0
-0.177408 -0.048421 -0.170672 255 0 0
0.202210 -0.011466 0.172299 255 0 0
0.203652 -0.089181 -0.091376 255 0 0
-0.133931 0.047379 0.365190 255 0 0
-0.118607 0.082008 0.146004 255 0 0
0.047858 -0.031055 -0.448097 255 0 0
-0.025478 -0.108324 -0.247719 255 0 0
0.105807 -0.103399 -0.050716 255 0 0
0.060559 -0.101217 0.358714 255 0 0
0.124879 -0.025358 -0.275706 255 0 0
-0.063786 0.084508 -0.111489 255 0 0
-0.044927 -0.050515 0.491558 255 0 0
0.159200 0.028490 0.310539 255 0 0
-0.189882 -0.051103 -0.370068 255 0 0
-0.021061 0.092328 -0.099850 255 0 0
0.162973 -0.101835 0.410577 255 0 0
-0.004441 -0.047873 -0.496535 255 0 0
-0.145236 -0.102924 0.422384 255 0 0
-0.029180 -0.006085 -0.408617 255 0 0
-0.004555 0.101795 0.085908 255 0 0
0.203176 -0.022204 0.171925 255 0 0
0.195371 -0.080738 -0.337510 255 0 0
0.088556 -0.100833 -0.026449 255 0 0
0.039009 -0.102001 0.088235 255 0 0
-0.177387 0.023281 -0.202302 255 0 0
-0.111056 0.053910 0.299677 255 0 0
-0.133524 0.079925 -0.021869 255 0 0
0.097547 -0.108040 0.093293 255 0 0
-0.158166 0.015700 0.429101 255 0 0
-0.024353 -0.110351 -0.162993 255 0 0
0.014166 -0.112650 -0.471028 255 0 0
-0.066453 0.033305 -0.216133 255 0 0
0.201701 0.031074 -0.046162 255 0 0
-0.154071 0.046130 0.353125 255 0 0
-0.078495 -0.106122 -0.222480 255 0 0
0.070677 -0.108985 -0.156720 255 0 0
-0.052721 -0.070314 -0.487992 255 0 0
0.032021 -0.108731 0.098293 255 0 0
-0.083943 -0.106632 0.173763 255 0 0
-0.205247 0.029296 0.102146 255 0 0
-0.067763 -0.103241 0.366422 255 0 0
0.153765 -0.040823 -0.432105 255 0 0
0.112243 -0.107318 0.068653 255 0 0
0.094943 0.077953 0.231167 255 0 0
0.064282 0.074862 0.275585 255 0 0
-0.077156 0.071070 0.278642 255 0 0
-0.113017 -0.109841 -0.278786 255 0 0
0.209538 -0.032987 -0.137992 255 0 0
0.185707 -0.106037 0.139945 255 0 0
0.109679 -0.110351 -0.263741 255 0 0
-0.044155 0.110236 -0.005122 255 0 0
0.199088 -0.103038 -0.330152 255 0 0
0.020425 0.052555 0.158924 255 0 0
-0.004027 -0.000939 0.475066 255 0 0
0.198270 -0.107889 -0.093635 255 0 0
-0.197009 0.032647 -0.005912 255 0 0
0.197015 -0.089389 0.112500 255 0 0
-0.010328 -0.102722 0.355680 255 0 0
-0.175575 0.024692 0.413283 255 0 0
0.013449 -0.026585 -0.463290 255 0 0
0.205340 -0.013575 0.215318 255 0 0
0.078948 0.019729 -0.311485 255 0 0
0.189402 0.013206 -0.287722 255 0 0
0.193020 -0.072617 0.136088 255 0 0
-0.048001 -0.111285 -0.292322 255 0 0
0.057903 -0.112001 -0.416999 255 0 0
0.023887 -0.104583 0.082795 255 0 0
-0.199302 0.030780 -0.022319 255 0 0
-0.011934 0.100667 0.081458 255 0 0
-0.122859 -0.070729 -0.263500 255 0 0
0.173697 0.009786 0.424322 255 0 0
0.179475 0.014694 0.385455 255 0 0
-0.162495 0.032744 -0.085286 255 0 0
0.202937 -0.066327 0.123036 255 0 0
0.121938 -0.070510 -0.169165 255 0 0
0.121936 0.000098 0.281577 255 0 0
0.197660 -0.056306 0.141289 255 0 0
-0.142122 -0.000921 -0.310650 255 0 0
-0.048300 0.022003 -0.347450 255 0 0
-0.118417 -0.009454 -0.416164 255 0 0
-0.120744 0.034119 -0.220905 255 0 0
0.080359 -0.104504 0.438828 255 0 0
-0.159140 -0.076875 -0.436296 255 0 0
0.077459 -0.095229 0.451275 255 0 0
0.061772 -0.015652 0.493778 255 0 0
0.071712 0.030528 -0.262248 255 0 0
-0.079899 -0.102232 -0.271892 255 0 0
-0.203053 -0.040416 0.106255 255 0 0
-0.124824 -0.081244 -0.190287 255 0 0
0.181393 -0.043250 0.049012 255 0 0
-0.012205 0.106264 0.087735 255 0 0
0.039775 -0.059444 0.495016 255 0 0
0.160430 -0.015711 0.050438 255 0 0
-0.202939 0.026684 0.299044 255 0 0
0.050523 -0.079690 -0.459925 255 0 0
-0.155727 -0.101280 0.021004 255 0 0
-0.145688 0.013893 -0.346144 255 0 0
0.075383 -0.109512 0.103084 255 0 0
-0.121562 -0.098408 -0.417216 255 0 0
0.170504 -0.109413 0.225050 255 0 0
0.153060 0.048396 0.332222 255 0 0
0.196132 -0.012783 0.191052 255 0 0
-0.024536 -0.102626 0.004713 255 0 0
-0.185502 -0.022507 -0.368676 255 0 0
-0.015916 -0.105984 0.321039 255 0 0
-0.197121 -0.016398 -0.037897 255 0 0
0.093861 -0.109090 0.069925 255 0 0
-0.130995 -0.072571 0.412582 255 0 0
-0.099321 -0.107485 0.006091 255 0 0
-0.090132 -0.015767 0.489140 255 0 0
-0.043044 -0.025049 -0.446739 255 0 0
0.117568 -0.102566 -0.101976 255 0 0
-0.135333 0.057557 0.150624 255 0 0
0.072366 0.080831 0.154520 255 0 0
0.181654 0.013976 -0.271106 255 0 0
0.196594 -0.106279 -0.158678 255 0 0
-0.127609 -0.071534 -0.290519 255 0 0
-0.201368 -0.056271 0.126923 255 0 0
0.081098 0.084760 0.159272 255 0 0
0.028970 -0.106443 0.351080 255 0 0
-0.046116 0.038119 0.393207 255 0 0
0.056137 0.052675 0.334830 255 0 0
0.201989 0.030588 -0.042610 255 0 0
0.012291 0.043513 0.348794 255 0 0
-0.110894 -0.067174 0.476219 255 0 0
-0.188861 0.040981 0.265629 255 0 0
0.143300 -0.016720 0.248744 255 0 0
-0.116384 0.048468 0.419254 255 0 0
0.179614 0.009085 -0.227131 255 0 0
-0.095751 0.032022 -0.259413 255 0 0
-0.023730 -0.100058 0.254728 255 0 0
-0.001820 -0.040204 -0.478095 255 0 0
-0.137674 -0.104662 0.197723 255 0 0
-0.019630 -0.106482 -0.140014 255 0 0
0.122351 0.091944 -0.006487 255 0 0
-0.091367 0.003278 0.116257 255 0 0
-0.173741 -0.106349 -0.140326 255 0 0
0.085623 0.006314 -0.372569 255 0 0
0.145359 0.009935 -0.223516 255 0 0
-0.203394 0.003879 -0.188926 255 0 0
0.152403 0.035894 -0.144087 255 0 0
0.182884 -0.092050 0.418695 255 0 0
-0.131522 0.049410 0.319456 255 0 0
-0.111096 -0.107286 0.039117 255 0 0
-0.061949 0.002392 0.470908 255 0 0
-0.009123 -0.101714 -0.193616 255 0 0
-0.037393 0.054487 0.263505 255 0 0
0.190469 -0.000284 -0.339733 255 0 0
-0.190891 -0.098925 0.155478 255 0 0
0.034500 -0.101854 -0.312447 255 0 0
-0.126267 -0.106173 0.307057 255 0 0
-0.159589 -0.021004 -0.322061 255 0 0
0.022047 -0.103289 -0.401121 255 0 0
0.195327 -0.100826 -0.011413 255 0 0
0.191484 -0.068469 0.210119 255 0 0
-0.164695 0.046942 0.256447 255 0 0
-0.190185 -0.008914 0.075393 255 0 0
-0.122441 -0.012502 -0.237009 255 0 0
-0.130132 0.081613 0.107769 255 0 0
-0.007128 -0.107107 -0.291864 255 0 0
0.032543 -0.108035 0.081894 255 0 0
0.010917 -0.059078 0.489919 255 0 0
0.017392 0.048155 0.253313 255 0 0
-0.197758 -0.024844 -0.322911 255 0 0
0.054756 -0.107667 0.135637 255 0 0
0.165813 0.031987 0.381769 255 0 0
0.198586 -0.018253 -0.100524 255 0 0
0.033403 -0.109506 0.057465 255 0 0
-0.127154 -0.040650 0.303155 255 0 0
-0.168385 0.046118 0.221857 255 0 0
0.087950 -0.109788 -0.215318 255 0 0
-0.183622 0.050370 0.172970 255 0 0
0.198136 0.024808 0.034372 255 0 0
-0.096152 -0.008482 -0.414489 255 0 0
0.050667 -0.003601 -0.406143 255 0 0
0.196256 -0.029518 -0.083472 255 0 0
-0.186702 0.047299 0.212564 255 0 0
0.003318 -0.109976 -0.244745 255 0 0
-0.002148 0.034604 0.370293 255 0 0
0.143356 0.020729 -0.292918 255 0 0
0.146122 -0.020776 0.398147 255 0 0
0.087671 -0.081249 -0.457561 255 0 0
0.029666 -0.103345 -0.233709 255 0 0
-0.006855 -0.109750 -0.167821 255 0 0
-0.204622 -0.065766 -0.153961 255 0 0
0.025073 -0.105726 -0.404771 255 0 0
0.143548 -0.101505 -0.017854 255 0 0
0.059659 -0.088557 -0.461500 255 0 0
-0.137515 0.079329 -0.014478 255 0 0
-0.184416 -0.067905 0.427577 255 0 0
-0.188377 -0.046191 -0.104969 255 0 0
0.090238 -0.003626 -0.393418 255 0 0
-0.166246 0.042308 -0.044741 255 0 0
0.041726 -0.017536 0.494832 255 0 0
0.178509 0.024911 -0.224714 255 0 0
-0.130011 0.088022 0.065336 255 0 0
0.067128 -0.112768 -0.386737 255 0 0
0.075231 -0.111063 -0.432244 255 0 0
-0.074555 0.032936 -0.236232 255 0 0
0.154364 -0.100456 0.058202 255 0 0
-0.154121 0.049266 0.078441 255 0 0
0.193396 0.029507 -0.068829 255 0 0
0.127254 -0.069357 -0.280141 255 0 0
0.202131 -0.059219 0.103122 255 0 0
0.006473 0.102425 0.001705 255 0 0
0.048153 -0.099853 0.412143 255 0 0
-0.010898 0.020920 -0.347865 255 0 0
-0.192207 0.003526 0.398910 255 0 0
-0.106772 0.081951 0.167438 255 0 0
-0.085936 -0.106402 -0.202550 255 0 0
0.111779 -0.105903 -0.124121 255 0 0
-0.119021 -0.112212 -0.444104 255 0 0
0.112530 -0.102967 -0.108870 255 0 0
-0.175460 0.010735 -0.334357 255 0 0
0.042244 -0.108430 -0.050916 255 0 0
-0.084767 -0.108204 0.222057 255 0 0
-0.171200 0.052785 0.196708 255 0 0
0.020852 0.048846 -0.175902 255 0 0
-0.159232 0.003230 -0.206103 255 0 0
0.060120 -0.107254 0.197228 255 0 0
0.084772 -0.108769 -0.081882 255 0 0
-0.124827 -0.100311 0.255794 255 0 0
-0.083793 -0.068469 0.481124 255 0 0
0.058151 -0.106481 0.330212 255 0 0
-0.135858 0.077384 0.105302 255 0 0
-0.119035 0.059067 0.133514 255 0 0
-0.099873 0.067417 0.265542 255 0 0
0.155438 0.017772 0.300527 255 0 0
-0.006958 -0.103624 0.215339 255 0 0
0.127734 -0.025702 0.295091 255 0 0
0.005696 0.104195 0.095665 255 0 0
0.093381 0.019734 0.445555 255 0 0
0.198469 -0.043554 -0.344827 255 0 0
-0.173122 -0.110638 -0.362275 255 0 0
0.077889 0.079011 0.210238 255 0 0
0.127819 -0.029769 -0.267016 255 0 0
-0.176978 -0.108451 -0.038670 255 0 0
-0.097942 0.109048 0.030479 255 0 0
0.199706 -0.007798 0.181450 255 0 0
-0.081726 0.107106 0.084921 255 0 0
0.116799 -0.107161 0.333593 255 0 0
-0.196397 0.001440 -0.050531 255 0 0
0.056063 0.109625 0.015627 255 0 0
-0.069608 -0.101663 0.200309 255 0 0
-0.005854 0.035114 -0.254849 255 0 0
-0.152261 0.045725 -0.018455 255 0 0
0.207184 0.012346 -0.149956 255 0 0
-0.131899 -0.109097 -0.163986 255 0 0
-0.020198 -0.107653 -0.027985 255 0 0
-0.109238 -0.109360 0.215905 255 0 0
-0.017562 -0.108620 -0.115657 255 0 0
0.142298 -0.107150 -0.136455 255 0 0
-0.161909 0.057200 -0.133726 255 0 0
0.003432 -0.107113 0.209785 255 0 0
-0.078015 -0.107305 -0.268686 255 0 0
-0.128430 -0.012722 0.359590 255 0 0
0.111321 -0.110135 0.213961 255 0 0
-0.174211 -0.107837 0.178839 255 0 0
0.094818 -0.108664 -0.132961 255 0 0
-0.001891 0.028397 -0.279703 255 0 0
-0.048024 -0.099640 0.442271 255 0 0
0.035225 0.052008 0.447644 255 0 0
0.069588 0.070984 0.277545 255 0 0
-0.053861 -0.103821 0.311623 255 0 0
0.075235 -0.088367 0.456483 255 0 0
-0.177247 0.025139 -0.253570 255 0 0
0.143952 -0.108800 -0.081063 255 0 0
-0.192434 0.016929 -0.290316 255 0 0
-0.047638 -0.102352 0.372269 255 0 0
-0.016513 -0.111194 -0.463997 255 0 0
-0.146580 0.020608 -0.291863 255 0 0
-0.099253 -0.100231 -0.059650 255 0 0
0.133785 -0.057324 -0.171235 255 0 0
-0.203129 -0.035563 0.138463 255 0 0
0.031388 0.030987 -0.295633 255 0 0
0.181886 -0.004860 -0.363277 255 0 0
-0.091626 0.086308 0.162057 255 0 0
-0.121849 0.032492 -0.226498 255 0 0
-0.174219 -0.113916 -0.366068 255 0 0
0.205945 -0.054758 -0.170494 255 0 0
-0.073593 0.064687 0.312367 255 0 0
-0.074104 -0.103724 -0.225343 255 0 0
-0.007049 -0.104211 0.036110 255 0 0
-0.143048 0.052564 0.275670 255 0 0
-0.134001 0.059418 0.202286 255 0 0
-0.037375 -0.105226 0.286495 255 0 0
0.200177 -0.079765 -0.352001 255 0 0
0.020151 -0.106439 0.322715 255 0 0
0.184476 0.045382 0.264417 255 0 0
0.123764 -0.012280 0.316596 255 0 0
-0.103493 0.103997 0.069541 255 0 0
0.151865 -0.104377 -0.126909 255 0 0
-0.163622 0.050441 0.280053 255 0 0
-0.157911 -0.073105 0.453868 255 0 0
0.116953 -0.013049 -0.410292 255 0 0
-0.162471 0.025672 -0.156878 255 0 0
0.086860 -0.029467 -0.448205 255 0 0
0.009798 -0.109536 -0.042384 255 0 0
-0.116657 -0.105357 -0.412399 255 0 0
0.015926 0.048898 0.449485 255 0 0
0.091642 -0.074830 0.472076 255 0 0
-0.108166 0.046113 0.368021 255 0 0
0.025453 -0.108051 -0.125878 255 0 0
-0.116078 -0.106448 -0.465566 255 0 0
-0.010590 -0.109539 -0.250622 255 0 0
0.072956 -0.095750 0.448908 255 0 0
-0.026525 -0.109898 -0.356565 255 0 0
-0.039994 -0.108406 -0.214513 255 0 0
-0.129217 0.083586 -0.048954 255 0 0
-0.010078 -0.108028 -0.193587 255 0 0
0.102093 0.036016 -0.197056 255 0 0
0.058738 -0.027105 -0.454721 255 0 0
0.075077 -0.109773 -0.473816 255 0 0
-0.128789 -0.016553 -0.415579 255 0 0
-0.029801 -0.110613 -0.382100 255 0 0
0.117147 -0.062164 -0.462550 255 0 0
-0.101925 -0.107175 -0.431533 255 0 0
-0.007522 0.031011 -0.289660 255 0 0
0.185706 0.010601 0.276221 255 0 0
0.125780 -0.042152 0.330613 255 0 0
-0.196358 0.016828 0.058645 255 0 0
0.197444 -0.040072 -0.128037 255 0 0
0.190432 -0.103517 -0.030231 255 0 0
-0.109777 0.021975 -0.287796 255 0 0
-0.043785 0.052747 0.334692 255 0 0
-0.050000 0.026161 -0.297458 255 0 0
0.099236 -0.112708 -0.360364 255 0 0
-0.048081 -0.058717 0.489027 255 0 0
-0.122700 -0.029779 -0.319381 255 0 0
-0.188695 -0.062412 -0.168159 255 0 0
-0.167720 -0.075381 -0.169417 255 0 0
-0.113572 -0.104777 -0.049808 255 0 0
0.127345 -0.023723 -0.228264 255 0 0
0.001539 -0.027779 -0.458302 255 0 0
-0.000317 -0.104502 0.372946 255 0 0
0.005386 0.044888 0.332448 255 0 0
-0.100856 -0.112768 -0.430545 255 0 0
-0.000841 -0.103420 0.041661 255 0 0
-0.180057 -0.041223 0.424208 255 0 0
-0.195487 0.012406 0.120923 255 0 0
0.158543 -0.107668 0.178629 255 0 0
0.116501 0.021397 -0.284332 255 0 0
-0.168464 0.040294 -0.026890 255 0 0
-0.201479 -0.000258 -0.094454 255 0 0
-0.069726 0.058417 0.329532 255 0 0
0.060693 -0.100115 -0.056760 255 0 0
-0.100920 -0.083246 0.460569 255 0 0
-0.037494 -0.106863 0.285667 255 0 0
-0.122716 -0.094927 0.387850 255 0 0
-0.138067 -0.102755 0.008079 255 0 0
0.175218 0.052751 0.213303 255 0 0
-0.154860 -0.032877 -0.417632 255 0 0
0.105730 -0.062939 -0.467015 255 0 0
-0.031165 -0.104853 0.074588 255 0 0
0.111473 -0.102535 0.196895 255 0 0
-0.182532 -0.034529 0.433302 255 0 0
0.149734 -0.106898 0.164003 255 0 0
-0.185060 -0.102044 -0.014639 255 0 0
0.196765 -0.057028 0.182063 255 0 0
-0.198031 0.015952 -0.023416 255 0 0
0.119470 -0.076790 0.395868 255 0 0
-0.022924 -0.109037 -0.018660 255 0 0
-0.209715 0.012832 -0.130963 255 0 0
-0.086580 -0.094670 0.450338 255 0 0
0.117805 0.104573 0.039902 255 0 0
-0.121076 -0.026375 0.474965 255 0 0
0.037789 -0.107822 -0.276118 255 0 0
-0.108699 -0.023398 -0.423229 255 0 0
0.202280 -0.043224 -0.166030 255 0 0
0.144746 -0.112773 -0.336930 255 0 0
0.199156 0.007501 -0.039319 255 0 0
0.087406 -0.015918 0.490734 255 0 0
0.035829 0.005319 0.464540 255 0 0
-0.164446 -0.001624 0.442266 255 0 0
-0.139415 0.073642 -0.074087 255 0 0
-0.082292 -0.112071 -0.445214 255 0 0
-0.047612 -0.106267 -0.219747 255 0 0
0.015674 0.077068 -0.117643 255 0 0
0.126829 -0.110853 -0.340781 255 0 0
-0.000266 0.052197 0.145483 255 0 0
-0.019964 -0.112685 -0.482549 255 0 0
-0.180703 -0.108685 0.128750 255 0 0
0.103854 -0.109369 0.203601 255 0 0
0.195863 -0.082577 -0.361771 255 0 0
0.002350 0.021469 0.439089 255 0 0
0.079220 0.036976 -0.230716 255 0 0
0.053725 -0.109947 0.051243 255 0 0
0.126924 0.049151 0.362788 255 0 0
0.197095 0.007475 0.378259 255 0 0
0.152595 0.034307 -0.160556 255 0 0
0.201578 -0.085406 -0.165078 255 0 0
-0.166144 -0.109151 -0.000815 255 0 0
-0.081238 0.013191 -0.355123 255 0 0
-0.122107 0.081534 0.138332 255 0 0
-0.201591 -0.090387 -0.015723 255 0 0
-0.015783 0.052652 0.204527 255 0 0
-0.086965 -0.101053 -0.184914 255 0 0
-0.063564 -0.104771 0.179303 255 0 0
-0.157918 -0.100309 0.228425 255 0 0
0.040398 0.027623 -0.310528 255 0 0
-0.178401 0.010535 0.394961 255 0 0
0.044895 0.104707 0.037655 255 0 0
-0.058022 0.000472 -0.404464 255 0 0
0.021330 -0.112621 -0.453365 255 0 0
0.114654 -0.107758 -0.161061 255 0 0
0.015318 -0.071936 0.469500 255 0 0
-0.193930 -0.009959 0.094183 255 0 0
-0.147233 -0.107173 0.051860 255 0 0
0.156383 -0.110432 -0.406495 255 0 0
0.171726 0.045155 0.106402 255 0 0
-0.019745 -0.042570 0.491954 255 0 0
0.060653 -0.102175 0.342444 255 0 0
0.069551 -0.102947 0.317816 255 0 0
0.048314 -0.105997 -0.062454 255 0 0
-0.189292 -0.082745 0.221422 255 0 0
-0.064293 -0.105245 -0.381318 255 0 0
-0.162580 0.028915 -0.186627 255 0 0
-0.166371 0.022776 -0.215569 255 0 0
-0.048591 -0.102653 0.428293 255 0 0
-0.063018 0.037098 -0.220941 255 0 0
0.155291 0.013895 -0.364529 255 0 0
-0.000365 -0.105737 -0.211298 255 0 0
-0.076528 -0.030392 -0.454058 255 0 0
0.147432 0.014301 -0.361242 255 0 0
-0.112339 0.101170 0.023213 255 0 0
0.199107 -0.103520 -0.076769 255 0 0
-0.021645 0.106252 0.093278 255 0 0
-0.203100 -0.090690 -0.064382 255 0 0
-0.193048 0.037218 0.237225 255 0 0
0.202094 -0.087165 -0.147634 255 0 0
-0.176611 -0.076507 -0.413124 255 0 0
-0.100579 -0.109650 0.195424 255 0 0
-0.204477 -0.010316 0.199890 255 0 0
-0.020141 -0.112575 -0.444935 255 0 0
0.160228 0.046845 0.066438 255 0 0
-0.201369 0.031387 -0.120015 255 0 0
0.002107 0.011447 -0.376002 255 0 0
-0.124650 -0.104905 -0.176839 255 0 0
0.179490 -0.003106 0.252399 255 0 0
0.169296 0.035237 0.391556 255 0 0
-0.095279 0.064068 0.303639 255 0 0
-0.101409 0.079212 0.219847 255 0 0
0.146313 0.044281 0.040035 255 0 0
0.187182 0.041109 0.258008 255 0 0
-0.082212 -0.103194 0.308680 255 0 0
-0.200783 0.017938 0.341182 255 0 0
0.034717 0.022227 0.448584 255 0 0
-0.010540 0.047299 0.271204 255 0 0
-0.196082 -0.079005 -0.093829 255 0 0
-0.158933 -0.108738 0.197899 255 0 0
-0.154904 0.017336 -0.367005 255 0 0
0.047368 0.056602 0.144202 255 0 0
-0.046040 -0.018178 -0.444202 255 0 0
0.122327 -0.001647 -0.393252 255 0 0
-0.072268 0.059286 0.322500 255 0 0
0.179223 -0.043589 0.435787 255 0 0
0.059183 0.097308 -0.061227 255 0 0
0.189191 0.014635 -0.307201 255 0 0
0.081000 0.105987 0.059850 255 0 0
0.127809 -0.092281 0.380638 255 0 0
0.112514 -0.105083 0.392944 255 0 0
-0.123074 -0.070207 -0.269413 255 0 0
-0.158331 0.022161 -0.221269 255 0 0
0.120956 0.078641 -0.090967 255 0 0
-0.106825 -0.107693 -0.202354 255 0 0
-0.205738 0.030859 0.064520 255 0 0
0.055737 -0.009443 0.485840 255 0 0
0.162298 -0.003483 0.254730 255 0 0
0.151861 -0.050358 -0.173587 255 0 0
-0.003234 0.024488 -0.329882 255 0 0
-0.115387 0.102505 -0.055969 255 0 0
-0.195980 0.012928 -0.030098 255 0 0
0.054805 0.060820 0.322958 255 0 0
-0.107847 -0.104450 0.030296 255 0 0
-0.185712 -0.102070 0.185943 255 0 0
-0.062509 0.098934 0.101498 255 0 0
-0.032418 -0.051945 0.488532 255 0 0
-0.131203 0.080893 -0.080342 255 0 0
0.127540 -0.074398 0.400766 255 0 0
-0.202466 -0.020111 0.230379 255 0 0
0.079759 -0.013997 -0.413168 255 0 0
-0.200398 0.018142 0.033034 255 0 0
0.141391 0.077690 -0.062311 255 0 0
0.171101 -0.090334 0.225159 255 0 0
0.117474 -0.078635 0.457170 255 0 0
-0.097509 -0.031545 -0.455489 255 0 0
-0.178263 -0.109340 -0.068660 255 0 0
-0.115796 0.073854 0.164890 255 0 0
0.066583 -0.053523 0.489793 255 0 0
-0.117804 0.100597 0.011893 255 0 0
-0.196801 -0.069707 -0.136617 255 0 0
-0.192236 0.002224 -0.087323 255 0 0
-0.189969 0.031186 0.358925 255 0 0
0.123853 0.074897 0.141248 255 0 0
0.103791 0.050532 0.311333 255 0 0
-0.180203 0.046447 0.279144 255 0 0
-0.121490 -0.105938 0.237765 255 0 0
-0.130665 0.031486 -0.189099 255 0 0
-0.027666 -0.102269 0.339926 255 0 0
0.121258 -0.064694 -0.204341 255 0 0
-0.109915 0.043233 0.373940 255 0 0
-0.103811 -0.104605 0.137818 255 0 0
0.195857 0.040813 0.085308 255 0 0
0.191148 0.008646 0.364915 255 0 0
-0.190733 -0.066173 0.411925 255 0 0
-0.027183 -0.048239 -0.478815 255 0 0
0.127814 0.031269 -0.226893 255 0 0
-0.022920 -0.106737 0.267868 255 0 0
0.190101 -0.097221 0.142240 255 0 0
0.122620 -0.091175 0.230894 255 0 0
-0.038441 -0.108791 0.135181 255 0 0
-0.155044 0.017698 -0.342196 255 0 0
0.023087 -0.098492 0.389118 255 0 0
-0.197076 -0.084280 -0.361574 255 0 0
0.126427 -0.100524 -0.285631 255 0 0
0.156017 -0.046771 -0.439817 255 0 0
0.064924 0.073237 0.253638 255 0 0
0.165617 -0.058730 0.174832 255 0 0
0.080400 0.105611 0.104000 255 0 0
0.136953 0.061364 0.163358 255 0 0
-0.133883 -0.013388 0.467319 255 0 0
-0.144620 0.065773 -0.016108 255 0 0
-0.173988 0.005921 0.268750 255 0 0
0.120696 0.032695 -0.233177 255 0 0
0.204186 -0.039789 0.123301 255 0 0
0.194629 -0.053447 -0.373072 255 0 0
-0.029105 0.014267 -0.373109 255 0 0
-0.062872 0.114217 0.048768 255 0 0
-0.202541 -0.061184 0.101867 255 0 0
0.165086 -0.077812 -0.339002 255 0 0
0.169860 0.026316 0.415842 255 0 0
-0.025990 -0.105224 0.152098 255 0 0
0.018156 -0.105196 0.123502 255 0 0
-0.167669 -0.113098 -0.354682 255 0 0
-0.193364 0.038359 0.147389 255 0 0
0.124077 -0.111552 -0.328279 255 0 0
-0.162302 0.026187 -0.215452 255 0 0
0.056457 -0.105349 0.104275 255 0 0
-0.182205 -0.085401 0.420352 255 0 0
0.208230 -0.010441 0.131641 255 0 0
-0.166582 -0.109012 -0.052473 255 0 0
0.050180 0.010287 0.103842 255 0 0
0.203710 -0.069546 -0.141573 255 0 0
0.081560 0.111780 0.028207 255 0 0
0.154929 -0.103397 0.098927 255 0 0
-0.105081 -0.105557 0.111572 255 0 0
0.032838 -0.108654 0.012368 255 0 0
-0.029082 -0.031936 0.450145 255 0 0
-0.054009 0.009319 -0.367774 255 0 0
0.046564 -0.070475 -0.497117 255 0 0
-0.201199 -0.020527 0.137390 255 0 0
-0.091684 -0.109083 -0.182945 255 0 0
-0.068992 -0.105282 -0.196558 255 0 0
-0.062675 0.025292 0.414974 255 0 0
0.196193 -0.011655 0.100234 255 0 0
-0.193359 -0.030387 -0.166565 255 0 0
0.063056 -0.109255 -0.266254 255 0 0
0.068353 0.037162 -0.204991 255 0 0
0.192183 -0.046232 -0.036865 255 0 0
-0.012987 -0.101447 0.448718 255 0 0
-0.029915 -0.104616 0.274824 255 0 0
0.152493 0.010500 -0.236437 255 0 0
-0.204210 0.000863 -0.174100 255 0 0
0.132444 -0.109588 0.200826 255 0 0
0.122689 0.026043 -0.255988 255 0 0
-0.194128 -0.032009 0.214422 255 0 0
-0.039326 0.085976 -0.113828 255 0 0
-0.183615 -0.077889 -0.047235 255 0 0
0.198035 0.021959 0.277651 255 0 0
0.097679 -0.106690 -0.399921 255 0 0
-0.078607 -0.102455 -0.210191 255 0 0
-0.198514 -0.036936 0.231071 255 0 0
-0.181379 -0.041432 -0.176782 255 0 0
0.059377 0.092861 0.104965 255 0 0
0.005521 0.043298 -0.164236 255 0 0
0.110079 0.108638 0.034978 255 0 0
-0.191746 0.021729 -0.277214 255 0 0
0.110219 0.051162 0.410681 255 0 0
0.004554 -0.106208 -0.167051 255 0 0
-0.068458 -0.109293 0.121740 255 0 0
-0.189773 -0.109416 0.014205 255 0 0
-0.196547 0.035417 -0.022703 255 0 0
0.119294 0.103092 0.097996 255 0 0
-0.102629 -0.021851 -0.436344 255 0 0
0.197932 -0.100694 -0.041786 255 0 0
-0.136430 -0.108843 -0.411644 255 0 0
-0.054017 0.084107 -0.114641 255 0 0
-0.067996 0.026263 -0.306113 255 0 0
0.165731 0.025096 -0.292080 255 0 0
-0.094995 -0.099794 -0.233507 255 0 0
-0.022035 0.104537 -0.041452 255 0 0
0.157560 -0.096270 -0.171647 255 0 0
-0.032009 0.113703 0.011095 255 0 0
-0.197998 0.020667 -0.037564 255 0 0
0.094928 -0.111852 -0.432802 255 0 0
-0.028452 0.040740 0.360679 255 0 0
0.049416 -0.104674 -0.282695 255 0 0
0.144029 -0.105573 -0.027911 255 0 0
-0.022969 0.033576 0.378668 255 0 0
0.066816 -0.092069 -0.460780 255 0 0
-0.038969 0.053956 0.411919 255 0 0
-0.119940 -0.069899 -0.268243 255 0 0
0.064928 0.076483 0.227569 255 0 0
-0.149090 -0.106584 0.049047 255 0 0
-0.121501 -0.103050 -0.022237 255 0 0
-0.132775 0.085745 -0.059710 255 0 0
-0.065737 -0.037781 0.422361 255 0 0
0.060733 -0.105891 0.172034 255 0 0
0.191406 0.029530 0.109938 255 0 0
-0.205894 0.000112 -0.192055 255 0 0
0.046712 0.069423 0.213699 255 0 0
-0.191737 0.027673 -0.166181 255 0 0
-0.192121 -0.000653 0.401750 255 0 0
0.038141 0.111072 -0.008438 255 0 0
-0.125330 -0.106020 -0.197164 255 0 0
0.031385 -0.109052 -0.012858 255 0 0
0.207679 -0.000056 0.190344 255 0 0
0.098416 0.049277 0.350735 255 0 0
-0.155978 -0.102407 -0.128907 255 0 0
0.184564 0.047002 0.162318 255 0 0
0.202459 -0.037160 0.138618 255 0 0
-0.095599 -0.106751 0.139097 255 0 0
-0.158629 0.026495 -0.287858 255 0 0
0.053259 -0.007337 0.479787 255 0 0
