ply
format ascii 1.0
element vertex 1312
property float x
property float y
property float z
property uchar red
property uchar green
property uchar blue
end_header
-0.061178 0.125753 0.315246 255 0 0
0.030254 -0.002890 0.476649 255 0 0
-0.005901 0.001484 -0.286285 255 0 0
-0.039998 0.089319 -0.143939 255 0 0
-0.207802 -0.022080 -0.107989 255 0 0
-0.193994 0.009346 0.223482 255 0 0
0.136318 0.099885 0.240965 255 0 0
0.060998 0.132142 -0.037127 255 0 0
0.179955 0.039610 0.119170 255 0 0
0.003848 -0.079030 -0.493849 255 0 0
0.042675 0.115610 0.363774 255 0 0
-0.170438 0.022134 -0.289212 255 0 0
0.041228 0.140371 0.140498 255 0 0
0.082353 -0.004846 -0.309003 255 0 0
0.158538 -0.049608 0.043360 255 0 0
-0.173098 0.020429 -0.277793 255 0 0
-0.126025 0.109809 0.286048 255 0 0
-0.199655 -0.096321 0.203442 255 0 0
0.003469 -0.098955 0.486154 255 0 0
0.104396 0.051624 -0.208503 255 0 0
-0.162312 -0.117979 -0.428696 255 0 0
0.097723 0.104452 -0.108269 255 0 0
0.182284 -0.101906 -0.379511 255 0 0
-0.199438 0.006951 0.323621 255 0 0
0.138269 0.046994 0.394351 255 0 0
-0.168157 0.041625 -0.223462 255 0 0
-0.032900 0.050563 -0.223280 255 0 0
0.126267 0.072302 -0.036195 255 0 0
-0.195564 0.017014 -0.008967 255 0 0
-0.081923 0.028148 -0.254378 255 0 0
-0.203976 -0.045792 0.118697 255 0 0
0.105147 0.135839 0.101107 255 0 0
0.059711 0.106794 -0.108984 255 0 0
-0.159291 0.073042 0.106310 255 0 0
0.018314 0.133526 0.165654 255 0 0
-0.006183 0.136718 0.237570 255 0 0
0.076525 0.137078 0.095162 255 0 0
0.160275 0.063716 0.207416 255 0 0
-0.202632 -0.071882 -0.101689 255 0 0
-0.167633 0.041823 -0.220682 255 0 0
-0.148261 0.038787 0.408074 255 0 0
-0.090485 -0.137992 0.428090 255 0 0
0.174636 -0.046099 -0.144508 255 0 0
-0.149335 0.065825 -0.173725 255 0 0
-0.040151 0.135612 -0.011738 255 0 0
-0.094733 -0.103794 0.471100 255 0 0
0.063083 0.065569 -0.179595 255 0 0
0.005775 0.140644 0.030876 255 0 0
0.198935 -0.099828 0.059461 255 0 0
-0.162213 -0.088984 -0.051806 255 0 0
-0.094238 -0.006259 -0.390918 255 0 0
0.196791 -0.134569 -0.388226 255 0 0
0.173713 0.031258 0.331470 255 0 0
0.174544 -0.089380 0.084710 255 0 0
-0.162391 -0.091590 -0.430595 255 0 0
-0.154988 0.130440 0.450406 255 0 0
0.206501 -0.061111 0.401231 255 0 0
0.068378 0.137425 -0.016397 255 0 0
-0.137211 0.080530 0.302378 255 0 0
-0.049251 -0.028037 0.479186 255 0 0
0.038323 0.132411 -0.049638 255 0 0
-0.072612 -0.009435 -0.430867 255 0 0
-0.073518 0.031964 -0.252654 255 0 0
-0.195864 -0.124958 -0.064784 255 0 0
0.191936 -0.137290 0.129141 255 0 0
-0.142003 -0.019529 -0.271253 255 0 0
0.124177 0.060853 -0.188249 255 0 0
0.164665 -0.102746 0.446834 255 0 0
-0.165590 -0.015426 0.083053 255 0 0
-0.114736 0.132432 0.108199 255 0 0
0.195338 -0.134234 -0.387821 255 0 0
0.028959 0.120436 0.412338 255 0 0
0.009154 0.021170 -0.360727 255 0 0
-0.021563 0.139608 0.192590 255 0 0
-0.176417 0.031532 0.241947 255 0 0
0.202005 -0.065753 -0.124860 255 0 0
-0.175109 -0.002217 -0.356655 255 0 0
-0.164743 0.069433 -0.011079 255 0 0
-0.079005 0.119344 -0.070005 255 0 0
-0.208423 0.001735 0.083910 255 0 0
0.096658 0.132253 0.203600 255 0 0
-0.090195 0.123555 0.305939 255 0 0
-0.080439 0.114259 0.413222 255 0 0
-0.108771 0.106558 -0.087079 255 0 0
-0.102936 -0.086215 -0.480602 255 0 0
0.106107 -0.135674 0.439911 255 0 0
0.088865 -0.068106 0.452134 255 0 0
-0.192473 -0.035758 -0.384355 255 0 0
-0.034461 -0.017097 -0.388031 255 0 0
-0.205861 -0.032238 -0.193677 255 0 0
-0.030953 0.137938 0.193391 255 0 0
-0.205530 -0.023418 0.049287 255 0 0
0.218523 -0.070550 0.226337 255 0 0
0.193021 -0.122712 0.128753 255 0 0
-0.141964 0.112725 0.034576 255 0 0
-0.160921 -0.140130 -0.190019 255 0 0
0.208621 -0.013821 -0.246579 255 0 0
-0.053507 0.119716 -0.082844 255 0 0
0.201119 -0.002982 0.223233 255 0 0
-0.165611 0.047103 0.276571 255 0 0
0.117244 0.100118 0.354680 255 0 0
0.198517 -0.017036 0.226558 255 0 0
-0.005996 -0.132375 0.243801 255 0 0
-0.189930 0.020618 0.151240 255 0 0
-0.186561 0.039380 -0.132452 255 0 0
0.057264 0.136084 0.009565 255 0 0
0.157473 -0.144290 -0.207433 255 0 0
-0.042198 0.128240 0.262885 255 0 0
0.107178 0.119270 -0.060977 255 0 0
0.094424 0.117050 0.238155 255 0 0
0.033193 0.002476 -0.393902 255 0 0
-0.158182 0.082470 -0.046724 255 0 0
0.013339 0.147189 0.177354 255 0 0
0.175212 -0.028804 -0.222442 255 0 0
0.165845 0.076053 -0.103403 255 0 0
0.145341 0.116190 0.043194 255 0 0
-0.170922 0.046950 0.206959 255 0 0
-0.100189 0.129343 0.137111 255 0 0
-0.014904 0.011387 0.451224 255 0 0
0.146793 -0.120758 0.436685 255 0 0
0.203407 -0.018295 -0.121262 255 0 0
-0.056057 0.138827 0.032893 255 0 0
0.138929 0.023075 -0.305521 255 0 0
-0.055683 -0.118148 0.455863 255 0 0
-0.067058 -0.007002 -0.335719 255 0 0
0.088482 0.114466 0.340265 255 0 0
0.189516 0.024696 0.206772 255 0 0
-0.166242 -0.092557 0.442310 255 0 0
-0.156155 0.100942 -0.084315 255 0 0
0.028721 -0.002058 -0.306994 255 0 0
-0.120163 -0.027541 -0.450761 255 0 0
0.031250 -0.018848 -0.464938 255 0 0
0.194643 -0.047826 -0.027314 255 0 0
-0.079850 0.024003 -0.311996 255 0 0
-0.167280 0.071266 0.162729 255 0 0
0.166346 -0.086319 -0.051204 255 0 0
0.160108 0.060042 0.228460 255 0 0
-0.142951 -0.126702 -0.380461 255 0 0
-0.059409 0.053023 -0.200843 255 0 0
-0.151405 0.113286 -0.034588 255 0 0
-0.081814 -0.042292 -0.474886 255 0 0
-0.073699 -0.013961 -0.454764 255 0 0
-0.144840 -0.032898 -0.232848 255 0 0
0.158050 0.064916 0.235571 255 0 0
0.109198 -0.006321 -0.393378 255 0 0
-0.013033 -0.025379 -0.475114 255 0 0
-0.149139 0.094178 0.049612 255 0 0
0.090822 0.076041 0.402629 255 0 0
-0.155671 0.122859 0.419445 255 0 0
-0.164681 0.084075 -0.119895 255 0 0
0.100324 -0.013668 -0.403127 255 0 0
0.155423 -0.026061 -0.329607 255 0 0
-0.202828 0.000344 0.286759 255 0 0
-0.157406 0.062336 -0.034750 255 0 0
-0.140937 0.027004 -0.293953 255 0 0
0.163678 0.075344 0.085998 255 0 0
0.041626 0.051898 -0.219717 255 0 0
-0.033144 -0.010201 -0.331719 255 0 0
-0.086416 -0.136553 -0.444936 255 0 0
0.178745 0.039824 -0.102120 255 0 0
0.194856 0.013079 0.128930 255 0 0
-0.001603 0.130432 0.267357 255 0 0
0.164515 0.010029 0.431345 255 0 0
0.164361 -0.001311 0.436735 255 0 0
0.174798 -0.102520 0.439988 255 0 0
-0.038673 -0.023490 0.487775 255 0 0
0.018931 -0.134677 0.269745 255 0 0
-0.204836 -0.034371 -0.080216 255 0 0
-0.206595 -0.060247 0.167784 255 0 0
0.096975 -0.137405 0.380398 255 0 0
0.062043 -0.117864 0.458026 255 0 0
-0.087735 0.128781 -0.029379 255 0 0
-0.179724 0.022814 -0.252996 255 0 0
0.193364 0.011218 -0.197238 255 0 0
0.191475 -0.093444 -0.158341 255 0 0
-0.200416 -0.090934 -0.150107 255 0 0
0.166026 0.014055 0.033925 255 0 0
-0.208985 0.034667 -0.134889 255 0 0
-0.078299 -0.002991 -0.423168 255 0 0
-0.153728 0.046962 0.367017 255 0 0
0.204439 -0.067975 0.409603 255 0 0
0.002121 -0.126258 -0.445462 255 0 0
0.096199 -0.034784 -0.470637 255 0 0
-0.161454 -0.028411 -0.021027 255 0 0
0.006769 -0.094929 0.486804 255 0 0
-0.134293 0.126866 0.089362 255 0 0
-0.048083 0.123906 0.337878 255 0 0
-0.111924 0.070794 -0.167895 255 0 0
-0.196352 0.018995 0.064463 255 0 0
-0.073523 -0.055582 -0.477726 255 0 0
0.175359 0.007267 -0.327091 255 0 0
-0.058911 0.134808 0.141800 255 0 0
-0.094215 -0.000477 -0.414197 255 0 0
0.021282 -0.014278 -0.460802 255 0 0
0.105528 0.092462 0.384332 255 0 0
-0.062744 0.011708 -0.375566 255 0 0
-0.012527 0.029797 -0.318957 255 0 0
-0.164749 0.052780 0.273520 255 0 0
-0.207036 -0.056743 0.231956 255 0 0
-0.039060 0.141282 0.037671 255 0 0
0.200277 -0.068410 0.125749 255 0 0
0.159196 0.048372 0.299713 255 0 0
0.204556 -0.105448 -0.169797 255 0 0
0.204318 -0.053945 0.199870 255 0 0
-0.169353 -0.009815 -0.399950 255 0 0
0.025127 0.071881 -0.186194 255 0 0
-0.163506 0.005296 -0.344993 255 0 0
-0.052734 -0.003607 -0.285893 255 0 0
0.185129 0.027632 0.270825 255 0 0
0.147760 -0.053329 0.466158 255 0 0
-0.103379 -0.129159 0.391606 255 0 0
0.045829 0.135466 0.229993 255 0 0
-0.136482 0.000272 -0.370874 255 0 0
0.021907 -0.059071 -0.491014 255 0 0
-0.027283 0.142289 0.159875 255 0 0
0.118845 0.038319 0.424229 255 0 0
0.206914 -0.100222 -0.029309 255 0 0
0.212677 0.054206 -0.131982 255 0 0
0.094899 0.110323 -0.096817 255 0 0
-0.172415 -0.066764 -0.424549 255 0 0
-0.202108 -0.109646 0.161138 255 0 0
0.167213 0.053187 0.198507 255 0 0
0.199930 -0.050633 0.061807 255 0 0
0.208742 -0.030868 0.327854 255 0 0
0.171323 0.057010 0.052252 255 0 0
-0.052348 -0.032911 -0.480845 255 0 0
-0.047629 0.060350 -0.213160 255 0 0
0.143368 0.041209 0.402300 255 0 0
0.200847 -0.016049 0.202148 255 0 0
-0.022287 -0.082454 0.496029 255 0 0
-0.207567 -0.011469 -0.288909 255 0 0
-0.195940 -0.031272 0.422066 255 0 0
0.030704 0.127674 0.319642 255 0 0
-0.185005 0.026141 0.301102 255 0 0
-0.002398 0.131111 0.287127 255 0 0
0.027906 0.141401 0.146816 255 0 0
-0.192561 -0.078625 0.003936 255 0 0
-0.204494 -0.006965 0.023994 255 0 0
-0.061406 -0.001902 -0.389142 255 0 0
0.163491 0.065353 -0.017607 255 0 0
0.183436 0.042195 -0.200364 255 0 0
-0.223564 0.053160 -0.116183 255 0 0
0.061334 -0.019025 -0.463659 255 0 0
0.294234 0.017804 0.163504 255 0 0
0.124982 -0.068813 -0.462364 255 0 0
-0.123780 0.129573 0.170702 255 0 0
-0.161444 0.029656 -0.272045 255 0 0
-0.128762 0.091272 0.331649 255 0 0
0.038836 0.135567 0.021643 255 0 0
-0.095147 0.104363 0.385855 255 0 0
0.132499 0.106391 0.180128 255 0 0
0.013195 -0.098421 -0.447552 255 0 0
-0.205742 -0.108582 -0.111751 255 0 0
-0.068604 0.110314 0.365591 255 0 0
0.124243 0.122720 0.140166 255 0 0
-0.112790 0.115957 -0.035363 255 0 0
-0.190835 -0.131640 -0.008062 255 0 0
-0.147520 0.027139 -0.283439 255 0 0
0.031605 0.123424 -0.055714 255 0 0
-0.119854 -0.002624 -0.408800 255 0 0
0.050582 0.134075 -0.038811 255 0 0
0.055281 0.082699 -0.161748 255 0 0
0.166850 0.058192 -0.006218 255 0 0
-0.167961 0.053426 -0.025803 255 0 0
0.069052 0.136081 0.186075 255 0 0
-0.159334 0.021424 -0.266256 255 0 0
0.192620 0.003270 0.244512 255 0 0
-0.089492 0.133735 0.023330 255 0 0
0.184837 0.023113 0.354791 255 0 0
0.082547 0.139356 0.141990 255 0 0
0.166325 0.049534 -0.030927 255 0 0
0.169780 0.051792 0.221548 255 0 0
0.204660 -0.122544 0.175817 255 0 0
0.011134 0.021559 -0.326922 255 0 0
0.167320 0.049897 0.270407 255 0 0
-0.063182 0.141532 0.133385 255 0 0
-0.175578 0.047734 0.159117 255 0 0
-0.168894 0.069783 0.172474 255 0 0
-0.144318 -0.049674 -0.210553 255 0 0
0.174909 -0.097707 -0.005316 255 0 0
-0.153842 -0.140558 -0.401984 255 0 0
-0.039385 -0.088405 -0.489822 255 0 0
0.080944 0.129365 0.192322 255 0 0
-0.120618 0.134751 0.119627 255 0 0
0.170229 0.052820 0.201294 255 0 0
-0.182795 -0.016919 -0.375346 255 0 0
-0.085666 0.115504 0.340859 255 0 0
-0.166133 0.082583 -0.121387 255 0 0
-0.172720 0.039368 0.271205 255 0 0
0.087953 -0.016350 0.475136 255 0 0
-0.168938 0.045227 0.254710 255 0 0
-0.162435 0.072805 0.033921 255 0 0
0.206878 -0.108728 -0.104243 255 0 0
0.168644 -0.084028 0.453488 255 0 0
0.115026 0.130930 0.028285 255 0 0
-0.062754 0.140814 0.139252 255 0 0
-0.078278 -0.005489 -0.340305 255 0 0
0.107868 -0.133624 0.401960 255 0 0
0.065382 -0.098762 0.479377 255 0 0
0.169708 -0.016037 -0.288442 255 0 0
-0.126710 0.002905 0.443354 255 0 0
-0.153982 0.090351 -0.039197 255 0 0
-0.055704 -0.092695 0.489829 255 0 0
-0.131506 0.095899 0.264063 255 0 0
-0.120073 -0.008855 -0.359789 255 0 0
0.085134 0.031997 -0.293938 255 0 0
0.146506 0.075196 0.282877 255 0 0
-0.078147 0.134295 0.014472 255 0 0
-0.054252 0.011139 -0.386993 255 0 0
0.157173 -0.136832 -0.377322 255 0 0
0.150555 0.081408 0.220771 255 0 0
-0.171832 -0.098891 -0.161749 255 0 0
-0.134511 0.084488 -0.124474 255 0 0
-0.194708 0.014490 0.122006 255 0 0
0.034696 0.137526 0.173968 255 0 0
0.205229 -0.063751 -0.088932 255 0 0
0.202170 -0.010393 0.294043 255 0 0
0.134054 0.064254 -0.179908 255 0 0
-0.199364 0.029163 0.181075 255 0 0
0.090703 0.028106 0.455331 255 0 0
0.202871 -0.086010 0.144636 255 0 0
-0.116207 0.134945 0.119701 255 0 0
-0.194774 0.020650 0.109768 255 0 0
0.129331 0.030059 -0.292754 255 0 0
0.182254 0.026941 0.345317 255 0 0
-0.102345 -0.106373 -0.476063 255 0 0
-0.199287 -0.128937 -0.090932 255 0 0
-0.186338 -0.173831 -0.272213 255 0 0
-0.008950 0.113136 0.361678 255 0 0
-0.109965 0.050385 -0.229117 255 0 0
0.047878 0.035064 -0.259802 255 0 0
0.149955 0.095059 -0.104558 255 0 0
-0.012049 -0.046294 -0.475467 255 0 0
0.200386 -0.133157 -0.378050 255 0 0
-0.174689 -0.026349 -0.404539 255 0 0
0.138157 0.062973 0.372008 255 0 0
-0.207445 -0.086201 -0.372898 255 0 0
-0.012880 0.140683 0.184650 255 0 0
-0.197123 -0.000771 0.302109 255 0 0
-0.140019 0.038932 -0.240489 255 0 0
-0.105577 0.114723 0.419433 255 0 0
0.072094 0.136074 -0.011847 255 0 0
0.139803 0.099043 -0.109329 255 0 0
-0.006469 0.136598 0.148723 255 0 0
0.024836 -0.108500 0.469421 255 0 0
0.026940 -0.046975 -0.441488 255 0 0
-0.110899 -0.006911 -0.423283 255 0 0
0.099577 -0.127282 0.464263 255 0 0
0.002430 -0.057676 0.477078 255 0 0
0.054733 0.137647 0.212075 255 0 0
0.048118 0.096952 -0.145855 255 0 0
-0.105722 -0.126520 -0.474205 255 0 0
-0.113660 0.131357 -0.020392 255 0 0
0.047551 0.136521 0.000123 255 0 0
-0.205561 -0.064476 -0.078801 255 0 0
-0.151539 -0.001572 -0.399292 255 0 0
-0.149532 0.093166 -0.106122 255 0 0
-0.215936 -0.111736 0.212541 255 0 0
-0.176392 0.041927 0.051660 255 0 0
0.185804 0.030512 0.340019 255 0 0
-0.153877 -0.134782 -0.431036 255 0 0
0.135499 0.113513 0.221826 255 0 0
-0.170406 -0.099253 0.021880 255 0 0
-0.021514 0.136422 0.069852 255 0 0
0.166195 0.057904 0.123114 255 0 0
-0.115368 0.131323 0.021313 255 0 0
-0.071350 0.110642 -0.091494 255 0 0
0.161939 0.080593 -0.070339 255 0 0
-0.201223 -0.066584 -0.079704 255 0 0
-0.204466 -0.035847 0.398938 255 0 0
-0.074934 0.010065 0.450233 255 0 0
0.013603 0.043349 -0.249975 255 0 0
-0.202159 -0.084618 -0.187016 255 0 0
0.119543 -0.049444 -0.349169 255 0 0
-0.200251 0.021052 0.214059 255 0 0
0.195135 -0.061789 0.425257 255 0 0
-0.167359 -0.101297 -0.424787 255 0 0
-0.237200 0.046668 -0.115956 255 0 0
-0.002272 0.122824 0.336020 255 0 0
0.035424 -0.115669 0.435678 255 0 0
0.208018 -0.015828 0.353771 255 0 0
-0.201736 -0.018305 -0.086965 255 0 0
-0.154421 0.079299 -0.029052 255 0 0
0.156434 0.055572 0.271667 255 0 0
0.191268 -0.137857 -0.140118 255 0 0
-0.200811 -0.027668 0.190039 255 0 0
-0.021369 -0.011812 -0.390405 255 0 0
-0.082586 0.046586 -0.210063 255 0 0
0.135138 -0.021069 -0.311352 255 0 0
0.155650 -0.018770 -0.304508 255 0 0
0.090261 0.122262 -0.066673 255 0 0
0.082302 0.027946 -0.301772 255 0 0
-0.140177 -0.031422 0.463093 255 0 0
-0.049567 -0.137659 -0.435998 255 0 0
0.153781 -0.047466 -0.354549 255 0 0
0.198493 -0.120581 -0.059234 255 0 0
0.175080 0.047335 -0.078902 255 0 0
0.146964 0.055373 0.269172 255 0 0
0.201810 -0.109296 -0.060058 255 0 0
0.136090 0.124681 0.019353 255 0 0
0.117754 -0.025627 0.458319 255 0 0
0.089470 0.120860 0.437414 255 0 0
0.062045 0.144264 0.037410 255 0 0
0.189395 -0.139627 -0.096811 255 0 0
-0.052406 0.135195 0.253755 255 0 0
0.002294 0.144493 0.045508 255 0 0
0.195466 0.003384 0.392336 255 0 0
0.102482 0.119699 0.322809 255 0 0
-0.200462 -0.134927 -0.380029 255 0 0
-0.209182 -0.013299 0.147876 255 0 0
-0.205891 -0.055015 -0.200398 255 0 0
-0.200552 -0.073051 0.077379 255 0 0
-0.131666 -0.125003 -0.196418 255 0 0
-0.056865 -0.010542 -0.401793 255 0 0
-0.027184 0.118162 0.384321 255 0 0
-0.234836 0.038719 -0.118115 255 0 0
-0.070825 -0.009168 -0.437163 255 0 0
0.130410 -0.069749 -0.366115 255 0 0
0.191733 0.022186 0.144502 255 0 0
-0.169814 -0.043212 -0.412614 255 0 0
-0.202876 -0.048655 -0.211512 255 0 0
0.083605 -0.396939 -0.098550 255 0 0
0.089309 -0.030055 -0.466864 255 0 0
-0.024273 -0.007715 -0.338958 255 0 0
-0.098364 -0.134190 -0.477532 255 0 0
0.053453 0.000719 -0.286459 255 0 0
0.192523 -0.009932 0.154680 255 0 0
-0.134475 0.103860 0.239753 255 0 0
-0.151560 0.088125 0.081140 255 0 0
0.125802 -0.087766 -0.460291 255 0 0
0.118155 -0.090419 0.480867 255 0 0
-0.203107 -0.003341 -0.130258 255 0 0
-0.168728 -0.097377 -0.380739 255 0 0
0.152437 -0.071413 0.465954 255 0 0
0.100627 0.033939 -0.286523 255 0 0
0.164505 -0.094831 -0.101298 255 0 0
0.154699 0.119706 0.397065 255 0 0
0.066869 0.140983 0.076876 255 0 0
0.172347 -0.006841 0.427921 255 0 0
-0.043331 0.035296 -0.298686 255 0 0
-0.022032 0.002883 -0.416149 255 0 0
0.176727 -0.096955 -0.045661 255 0 0
0.022286 -0.009039 -0.436915 255 0 0
-0.153161 0.062421 0.187511 255 0 0
-0.152197 -0.096520 -0.372040 255 0 0
0.141050 0.093079 0.196726 255 0 0
-0.174528 0.047608 -0.005263 255 0 0
-0.053175 0.066087 -0.188379 255 0 0
-0.131436 -0.064861 -0.466241 255 0 0
-0.113427 -0.004366 -0.290616 255 0 0
0.067158 0.117990 0.368042 255 0 0
0.152568 0.077057 -0.143756 255 0 0
-0.155976 0.055527 -0.183428 255 0 0
-0.109858 0.136668 0.115449 255 0 0
-0.168350 -0.076699 -0.373712 255 0 0
-0.109328 -0.010324 0.458524 255 0 0
-0.184958 -0.136883 -0.013353 255 0 0
0.005490 0.141980 0.177194 255 0 0
-0.109287 0.136963 0.093966 255 0 0
0.016458 0.006381 -0.413131 255 0 0
0.032710 0.135030 -0.025580 255 0 0
-0.043577 -0.005085 -0.311100 255 0 0
0.202688 -0.013248 0.171504 255 0 0
-0.140026 -0.121486 0.444030 255 0 0
-0.111388 0.133345 0.045804 255 0 0
0.179556 0.036776 -0.093003 255 0 0
-0.114448 -0.025911 -0.426350 255 0 0
-0.080610 -0.012772 -0.376991 255 0 0
-0.182666 -0.118754 -0.414784 255 0 0
-0.097316 0.034943 -0.241681 255 0 0
-0.092260 0.030536 -0.304535 255 0 0
0.044881 0.003516 -0.402652 255 0 0
0.053845 -0.062864 -0.490583 255 0 0
-0.167003 -0.014606 0.008996 255 0 0
0.197937 -0.095637 0.417201 255 0 0
-0.185743 0.015426 -0.101793 255 0 0
-0.008627 -0.089425 0.490307 255 0 0
-0.057229 0.072247 -0.172752 255 0 0
-0.170156 0.060080 -0.157574 255 0 0
0.167457 -0.046962 -0.132187 255 0 0
-0.454574 -0.348312 0.227399 255 0 0
-0.206030 -0.073671 0.191482 255 0 0
-0.035154 0.132781 0.238473 255 0 0
-0.140976 0.083129 0.259885 255 0 0
-0.009807 0.094598 0.408962 255 0 0
0.188921 0.015793 0.201553 255 0 0
-0.201389 -0.000027 -0.091951 255 0 0
0.153352 0.026268 -0.281089 255 0 0
0.098221 0.134811 0.102855 255 0 0
-0.036826 0.033809 0.466273 255 0 0
0.098248 0.116183 0.282392 255 0 0
-0.182373 -0.031952 -0.381483 255 0 0
-0.160980 0.055581 0.056588 255 0 0
0.165042 -0.013081 0.043015 255 0 0
0.072857 0.035839 -0.281897 255 0 0
0.188472 -0.013121 -0.280383 255 0 0
0.207528 -0.046759 -0.065027 255 0 0
0.095630 0.140310 0.068359 255 0 0
0.184636 0.026130 0.278885 255 0 0
-0.063502 0.131208 0.274975 255 0 0
-0.091509 0.080781 0.424429 255 0 0
0.128823 0.119095 0.204599 255 0 0
-0.040933 -0.064653 -0.491632 255 0 0
-0.102104 0.137162 0.149600 255 0 0
-0.051978 0.117929 0.401618 255 0 0
0.019860 0.058929 0.436872 255 0 0
0.043865 -0.009210 -0.335736 255 0 0
0.088457 -0.130400 0.357750 255 0 0
0.106900 -0.104482 0.470223 255 0 0
-0.029403 -0.112669 0.456710 255 0 0
0.196192 -0.022805 -0.346325 255 0 0
0.177255 0.032053 -0.232842 255 0 0
0.200113 -0.124482 -0.385406 255 0 0
-0.137298 0.071302 -0.166269 255 0 0
0.205225 -0.010587 -0.079022 255 0 0
0.084371 0.052439 0.437756 255 0 0
0.174520 0.030492 -0.230151 255 0 0
-0.153523 -0.093429 -0.438214 255 0 0
-0.025289 0.143794 0.072045 255 0 0
0.194210 0.016377 0.211344 255 0 0
0.184529 0.026923 0.263615 255 0 0
0.214652 -0.039979 0.251700 255 0 0
0.181747 0.032548 -0.213758 255 0 0
0.200121 -0.015797 -0.234553 255 0 0
0.010273 0.116036 0.374968 255 0 0
-0.044362 0.122331 -0.079175 255 0 0
-0.124318 0.115220 0.264381 255 0 0
0.067517 0.123975 0.302554 255 0 0
-0.155263 0.036800 -0.248667 255 0 0
-0.064719 -0.000912 -0.379920 255 0 0
0.058704 0.085762 0.414716 255 0 0
0.179368 -0.100496 -0.189950 255 0 0
0.125070 0.141912 0.154278 255 0 0
0.162710 0.038396 0.352256 255 0 0
0.099494 0.130487 -0.006990 255 0 0
-0.082968 0.073681 0.415022 255 0 0
-0.072114 0.130235 0.246482 255 0 0
-0.201496 -0.104003 0.057907 255 0 0
0.125776 -0.130382 -0.185114 255 0 0
-0.014737 0.030945 -0.270581 255 0 0
-0.146330 0.076452 0.298267 255 0 0
-0.046604 -0.097326 0.491294 255 0 0
-0.145142 0.036862 0.416990 255 0 0
-0.120452 0.005823 0.461641 255 0 0
0.159377 -0.048025 0.444041 255 0 0
0.177731 0.038760 0.245217 255 0 0
0.131460 0.040217 0.417096 255 0 0
0.110703 0.076537 0.406937 255 0 0
0.032086 0.130815 -0.058406 255 0 0
0.103572 0.130400 0.219754 255 0 0
-0.193820 0.017642 0.027167 255 0 0
-0.201058 -0.112032 0.185095 255 0 0
0.181795 -0.135093 0.071183 255 0 0
-0.101043 0.105552 -0.108896 255 0 0
0.192692 -0.127277 0.215642 255 0 0
0.035321 0.137733 0.110508 255 0 0
-0.173390 -0.053300 0.081990 255 0 0
-0.076811 -0.043127 0.485911 255 0 0
-0.010994 -0.135837 0.267998 255 0 0
-0.064415 0.091002 -0.141391 255 0 0
-0.203119 -0.010884 -0.191581 255 0 0
-0.198293 -0.121303 0.115478 255 0 0
0.093934 0.063252 -0.171622 255 0 0
-0.195812 0.011288 -0.164607 255 0 0
0.202264 -0.022851 0.016374 255 0 0
-0.186228 -0.002696 0.418792 255 0 0
0.164903 0.055760 0.192827 255 0 0
-0.200241 -0.038746 0.170668 255 0 0
0.169320 -0.101217 -0.130572 255 0 0
-0.100313 0.095152 -0.129336 255 0 0
-0.005607 0.137013 -0.022986 255 0 0
-0.106007 -0.134282 0.371699 255 0 0
-0.066522 -0.128048 0.332851 255 0 0
0.155342 0.038797 0.352416 255 0 0
0.043478 0.064256 0.429983 255 0 0
-0.063890 0.113896 0.370821 255 0 0
0.009825 -0.025556 0.486357 255 0 0
-0.088231 0.122539 0.304403 255 0 0
-0.192223 -0.118209 0.180948 255 0 0
0.187084 0.028300 0.179510 255 0 0
-0.111506 -0.003222 -0.334086 255 0 0
0.204495 -0.013232 -0.084755 255 0 0
0.020979 0.146393 0.174673 255 0 0
-0.059458 -0.134349 -0.451338 255 0 0
-0.197149 0.002686 0.204272 255 0 0
0.165062 0.062485 -0.019657 255 0 0
0.124180 0.134932 0.065207 255 0 0
0.192297 -0.135634 0.062449 255 0 0
-0.150612 0.108650 -0.075498 255 0 0
-0.162776 0.065481 -0.053566 255 0 0
-0.176319 0.025348 -0.268742 255 0 0
-0.054374 0.126490 0.315810 255 0 0
-0.007294 0.131510 0.065350 255 0 0
0.053396 0.128140 0.259649 255 0 0
-0.099262 0.118804 0.441011 255 0 0
-0.149753 0.096372 0.056506 255 0 0
-0.051645 0.138932 0.150126 255 0 0
0.006185 0.026499 0.473411 255 0 0
-0.208345 -0.046578 0.247225 255 0 0
0.181558 0.022279 0.410265 255 0 0
-0.207489 -0.094612 -0.007992 255 0 0
0.151687 -0.137065 -0.379307 255 0 0
0.171413 -0.100923 -0.100193 255 0 0
0.027005 0.131320 -0.053001 255 0 0
-0.117484 -0.130180 -0.428793 255 0 0
-0.057266 0.133629 0.018576 255 0 0
-0.064683 0.009003 0.473693 255 0 0
-0.141774 0.113770 -0.069618 255 0 0
-0.106023 0.058788 0.424683 255 0 0
0.014156 0.015943 -0.376273 255 0 0
0.166459 -0.038208 0.037120 255 0 0
-0.089990 0.122193 0.435236 255 0 0
0.134000 0.129883 0.110103 255 0 0
0.146110 0.118494 0.018109 255 0 0
-0.203372 -0.063791 0.044273 255 0 0
-0.195928 -0.025651 0.144178 255 0 0
0.198923 -0.022641 -0.152275 255 0 0
-0.052921 -0.190947 -0.079923 255 0 0
-0.044822 0.023818 0.463817 255 0 0
-0.170994 0.056550 0.129189 255 0 0
-0.203220 0.017110 0.294147 255 0 0
0.031408 0.135211 0.031069 255 0 0
-0.203593 -0.104271 0.171301 255 0 0
-0.119482 -0.008551 -0.336956 255 0 0
0.120302 0.029612 -0.279698 255 0 0
0.202898 -0.027722 0.116973 255 0 0
0.150123 -0.044495 -0.353584 255 0 0
0.165993 0.075569 0.032500 255 0 0
-0.164216 -0.075994 -0.017254 255 0 0
-0.195011 -0.136488 -0.022376 255 0 0
-0.165070 -0.119674 -0.189098 255 0 0
-0.057589 -0.067430 -0.491713 255 0 0
-0.194051 0.010949 0.040594 255 0 0
0.079896 0.138052 0.048867 255 0 0
-0.161924 0.007996 -0.346017 255 0 0
0.002801 -0.054460 -0.491805 255 0 0
0.140723 -0.091825 -0.371424 255 0 0
-0.138315 0.024515 -0.261456 255 0 0
-0.057643 0.004953 -0.397582 255 0 0
0.113199 0.021963 0.458115 255 0 0
-0.200552 -0.126756 -0.165290 255 0 0
-0.059337 -0.131216 -0.483222 255 0 0
-0.151791 0.065058 0.130396 255 0 0
-0.132681 0.088715 0.285259 255 0 0
-0.198619 -0.009371 0.313696 255 0 0
-0.166888 0.060556 0.103419 255 0 0
0.118322 0.124261 0.204602 255 0 0
-0.100453 0.129073 0.111222 255 0 0
0.181745 0.023397 0.231562 255 0 0
0.078396 -0.137985 -0.450001 255 0 0
-0.040907 0.135379 0.010203 255 0 0
-0.161403 -0.001934 -0.384588 255 0 0
0.190674 -0.135709 -0.150772 255 0 0
0.062192 0.130286 0.273092 255 0 0
-0.041891 -0.000300 -0.427505 255 0 0
0.170675 -0.081857 0.447172 255 0 0
-0.159944 -0.072719 0.460978 255 0 0
0.097145 0.037484 -0.259072 255 0 0
-0.194602 0.019784 -0.041345 255 0 0
0.188368 -0.069266 -0.390356 255 0 0
0.057752 0.059293 -0.193137 255 0 0
-0.045784 0.130292 0.247437 255 0 0
0.082224 0.129230 0.054302 255 0 0
0.136637 0.068924 -0.160102 255 0 0
-0.197851 -0.079744 -0.371606 255 0 0
0.210073 -0.050843 -0.192006 255 0 0
0.028464 -0.118329 -0.486656 255 0 0
0.157769 -0.055994 0.005350 255 0 0
0.114228 -0.059332 -0.433957 255 0 0
0.137948 0.099032 0.218728 255 0 0
-0.064451 0.001272 -0.375272 255 0 0
-0.008732 0.140146 0.205539 255 0 0
-0.041095 -0.101466 0.477046 255 0 0
-0.089267 -0.081515 0.486307 255 0 0
0.198720 -0.031065 0.199642 255 0 0
0.133168 -0.047162 -0.219838 255 0 0
0.206158 -0.034701 -0.001206 255 0 0
0.142515 -0.086139 -0.451537 255 0 0
0.165386 0.002731 0.010963 255 0 0
-0.093913 0.113401 -0.084015 255 0 0
0.082885 0.084368 -0.153336 255 0 0
-0.152847 0.061758 0.293503 255 0 0
0.085105 0.137908 0.031565 255 0 0
0.168987 0.037737 0.329678 255 0 0
-0.199340 -0.020556 0.407393 255 0 0
-0.062758 -0.104743 0.426369 255 0 0
0.158901 0.061618 0.259175 255 0 0
-0.191324 -0.032389 -0.227090 255 0 0
0.008384 0.104481 -0.108770 255 0 0
-0.111194 -0.006542 -0.423590 255 0 0
0.040381 0.098063 -0.142061 255 0 0
-0.036176 -0.017263 -0.467191 255 0 0
0.128019 -0.008419 -0.254089 255 0 0
-0.080776 0.020349 0.443590 255 0 0
-0.202999 -0.019296 0.231186 255 0 0
0.187347 -0.076808 0.435763 255 0 0
0.168703 0.032328 -0.240949 255 0 0
0.185691 0.029005 0.248014 255 0 0
0.162908 0.066101 0.024940 255 0 0
-0.101512 -0.003257 -0.295519 255 0 0
-0.154927 -0.130092 -0.428608 255 0 0
-0.173933 0.058410 -0.162856 255 0 0
-0.162850 0.062605 -0.056122 255 0 0
-0.027573 -0.001059 -0.311038 255 0 0
0.016584 -0.001920 -0.422279 255 0 0
0.141297 -0.056295 -0.450071 255 0 0
-0.200555 -0.012009 0.374447 255 0 0
0.191813 -0.134836 0.011687 255 0 0
0.051320 0.135694 0.232079 255 0 0
-0.164748 -0.089105 -0.429215 255 0 0
-0.050398 0.121812 0.322949 255 0 0
-0.067671 -0.132828 0.396065 255 0 0
-0.130642 -0.022653 -0.188082 255 0 0
0.193887 -0.018528 -0.353621 255 0 0
0.204288 -0.094155 0.004223 255 0 0
0.020808 -0.131390 -0.492675 255 0 0
0.154002 -0.035540 -0.424582 255 0 0
0.042211 0.119788 0.335726 255 0 0
0.202516 -0.017986 -0.301903 255 0 0
0.072045 0.106412 -0.108627 255 0 0
-0.103680 0.028767 -0.285664 255 0 0
-0.361497 0.110262 0.249451 255 0 0
-0.099866 0.037296 0.427944 255 0 0
0.099545 -0.080790 0.476808 255 0 0
0.073131 0.121896 0.288252 255 0 0
0.079956 0.006968 -0.373919 255 0 0
0.107756 0.116460 0.294838 255 0 0
-0.201730 -0.121703 -0.003311 255 0 0
0.181335 0.016657 -0.107146 255 0 0
-0.211975 -0.102943 0.081826 255 0 0
0.164134 0.058546 0.178366 255 0 0
-0.034300 0.134298 0.043466 255 0 0
0.144364 0.109218 0.132698 255 0 0
0.155826 -0.078694 -0.027343 255 0 0
-0.194970 -0.063232 -0.012269 255 0 0
0.140269 -0.031048 -0.444086 255 0 0
0.165727 -0.023069 0.081094 255 0 0
-0.204184 -0.021953 0.189244 255 0 0
0.066428 -0.081499 -0.450110 255 0 0
0.166742 -0.072337 -0.080023 255 0 0
-0.139031 0.121068 0.110820 255 0 0
0.170227 0.001787 0.432164 255 0 0
0.134773 0.006063 -0.377384 255 0 0
-0.134237 0.085414 0.334166 255 0 0
0.175441 -0.010852 -0.281320 255 0 0
-0.154811 -0.131684 -0.374676 255 0 0
-0.142520 -0.138499 -0.433733 255 0 0
-0.030580 0.126636 0.278878 255 0 0
-0.126962 0.036815 -0.240282 255 0 0
-0.167996 0.041943 0.278845 255 0 0
-0.011781 0.120136 0.442551 255 0 0
-0.132113 -0.060488 0.472486 255 0 0
-0.177489 -0.026979 0.435165 255 0 0
-0.104369 0.133180 0.010430 255 0 0
0.163414 -0.030990 0.030825 255 0 0
-0.122707 0.002616 0.446072 255 0 0
0.201111 -0.115028 0.190840 255 0 0
0.059852 0.119361 0.418145 255 0 0
-0.193058 -0.018065 0.411755 255 0 0
0.192735 -0.134281 0.088818 255 0 0
0.202556 -0.119301 -0.068087 255 0 0
0.167451 0.071374 -0.144793 255 0 0
0.160884 -0.102781 -0.193935 255 0 0
-0.178618 0.041426 -0.002323 255 0 0
-0.076592 0.071193 -0.181664 255 0 0
-0.099560 -0.002209 -0.295757 255 0 0
-0.066502 0.032696 0.462437 255 0 0
0.165709 0.046987 -0.084044 255 0 0
0.211380 -0.029319 0.251888 255 0 0
-0.169656 0.053351 0.102489 255 0 0
0.190011 -0.102607 -0.078443 255 0 0
0.172551 0.052206 -0.014739 255 0 0
-0.092115 0.121913 -0.055703 255 0 0
0.043997 0.124757 -0.069032 255 0 0
-0.177191 -0.012378 -0.382055 255 0 0
-0.104195 -0.072466 -0.481005 255 0 0
0.172309 -0.132885 -0.412450 255 0 0
0.213491 -0.014444 0.255234 255 0 0
0.155913 0.075137 -0.057552 255 0 0
0.043159 0.115070 -0.084577 255 0 0
-0.139159 0.069710 -0.152228 255 0 0
0.196224 0.002473 -0.210300 255 0 0
-0.183837 0.025257 0.306875 255 0 0
-0.194760 0.002458 0.089820 255 0 0
0.173345 -0.123086 -0.375772 255 0 0
-0.123543 0.080192 0.389341 255 0 0
-0.170569 -0.093191 -0.066292 255 0 0
-0.011630 0.018572 -0.344423 255 0 0
0.201347 -0.047706 0.082468 255 0 0
0.158077 0.063942 0.275560 255 0 0
0.155606 -0.116336 0.423652 255 0 0
0.101071 0.129954 0.282903 255 0 0
0.202080 -0.124298 -0.171243 255 0 0
0.028978 0.139872 0.139919 255 0 0
-0.094085 -0.094261 -0.481071 255 0 0
-0.044257 0.142671 0.087660 255 0 0
-0.133733 0.118772 -0.062872 255 0 0
0.173540 0.051641 -0.178315 255 0 0
0.199025 -0.111476 0.208076 255 0 0
-0.143132 0.123895 0.077480 255 0 0
0.102731 0.004509 -0.412112 255 0 0
0.111252 -0.060091 0.460069 255 0 0
-0.082371 -0.134596 -0.458312 255 0 0
0.041327 0.141142 -0.001291 255 0 0
-0.080606 0.137596 0.182679 255 0 0
-0.102149 -0.076350 -0.477867 255 0 0
-0.201264 -0.057014 -0.183530 255 0 0
-0.155409 0.063671 0.240434 255 0 0
-0.073222 0.079177 -0.154857 255 0 0
-0.197331 -0.128252 -0.062901 255 0 0
-0.200796 -0.019609 0.208972 255 0 0
-0.192642 -0.116199 0.162019 255 0 0
0.203027 -0.026167 -0.178359 255 0 0
-0.010128 0.037490 -0.292586 255 0 0
0.206915 -0.067426 -0.148159 255 0 0
-0.194446 -0.084907 -0.376315 255 0 0
0.054440 0.116558 0.395281 255 0 0
-0.195731 -0.139880 -0.377716 255 0 0
0.208882 -0.019668 -0.223378 255 0 0
0.157423 0.066876 0.179439 255 0 0
-0.054886 0.021810 -0.353802 255 0 0
-0.100749 -0.066254 -0.471869 255 0 0
0.096665 0.127923 0.252140 255 0 0
-0.164745 -0.012745 -0.013124 255 0 0
0.158428 -0.066357 0.048551 255 0 0
0.145007 0.042219 -0.209003 255 0 0
-0.018692 0.145047 0.057256 255 0 0
-0.137575 -0.084892 -0.374468 255 0 0
-0.193353 -0.135166 -0.017606 255 0 0
0.201513 -0.086171 -0.015140 255 0 0
-0.148957 0.048672 -0.197135 255 0 0
-0.127470 0.110170 0.289331 255 0 0
0.048125 -0.007003 -0.364752 255 0 0
-0.099467 0.110386 0.358493 255 0 0
-0.149258 0.090873 -0.011854 255 0 0
-0.195406 -0.036656 -0.219801 255 0 0
-0.202672 0.000682 0.311204 255 0 0
0.147716 0.071746 0.208656 255 0 0
0.201170 -0.070929 0.224369 255 0 0
-0.152069 -0.108878 0.423229 255 0 0
0.076939 0.118658 0.342281 255 0 0
0.161940 0.071011 0.177310 255 0 0
0.138711 0.123669 0.056105 255 0 0
-0.205102 -0.000017 0.276411 255 0 0
0.066610 0.108170 0.396003 255 0 0
-0.206924 0.016352 0.176040 255 0 0
-0.025771 0.011322 -0.392855 255 0 0
-0.144908 0.060976 0.348236 255 0 0
0.057262 0.134502 0.062025 255 0 0
-0.172911 -0.017304 0.057630 255 0 0
0.203500 -0.020411 0.182259 255 0 0
-0.185890 0.029213 0.208124 255 0 0
-0.143345 0.037411 -0.257981 255 0 0
-0.147035 0.118595 -0.036729 255 0 0
-0.013609 -0.128634 -0.482505 255 0 0
-0.207755 -0.044072 -0.054470 255 0 0
0.192638 -0.138418 -0.129768 255 0 0
-0.190189 0.020032 0.068342 255 0 0
-0.048894 -0.026098 -0.472936 255 0 0
-0.024574 -0.042095 0.479350 255 0 0
-0.106480 0.005882 -0.372411 255 0 0
-0.098444 0.115057 -0.073335 255 0 0
-0.055694 0.140586 0.129222 255 0 0
0.187120 0.018030 0.243877 255 0 0
0.178653 -0.017245 -0.386577 255 0 0
-0.041119 0.132620 0.240436 255 0 0
-0.105424 -0.126836 -0.478401 255 0 0
-0.126897 0.007022 0.367271 255 0 0
-0.034251 0.119963 0.352728 255 0 0
-0.167574 0.064231 0.063385 255 0 0
-0.130363 0.085167 -0.131385 255 0 0
0.104274 0.006763 -0.378044 255 0 0
0.116731 0.119985 0.277665 255 0 0
-0.114094 0.132267 0.157788 255 0 0
-0.132172 -0.034576 -0.443238 255 0 0
0.029312 0.116166 0.359444 255 0 0
-0.136644 -0.028736 -0.399543 255 0 0
0.202111 -0.009322 0.381921 255 0 0
0.135920 0.073497 0.362757 255 0 0
0.000443 0.121867 0.318559 255 0 0
-0.170337 0.030723 0.355012 255 0 0
0.186988 0.020504 0.245325 255 0 0
-0.072078 0.096269 -0.131069 255 0 0
0.103542 0.026309 0.434253 255 0 0
0.177934 -0.090576 -0.385623 255 0 0
-0.059788 0.037305 -0.253877 255 0 0
-0.148343 0.104130 -0.008254 255 0 0
0.153613 -0.116823 -0.375118 255 0 0
-0.203679 -0.061550 -0.134634 255 0 0
-0.130626 0.001084 0.455135 255 0 0
0.011969 0.135041 -0.053823 255 0 0
0.030582 -0.111731 -0.450014 255 0 0
-0.153150 -0.106719 0.448772 255 0 0
-0.110964 0.131065 0.136245 255 0 0
-0.202812 -0.010091 0.365254 255 0 0
0.143234 -0.013375 -0.276523 255 0 0
-0.152522 0.096684 -0.025711 255 0 0
-0.117754 0.002238 0.458948 255 0 0
0.197271 -0.110646 -0.153561 255 0 0
-0.153136 -0.093362 -0.197252 255 0 0
-0.207775 -0.003261 0.369289 255 0 0
-0.169223 0.040447 0.297147 255 0 0
0.086793 0.102828 0.390906 255 0 0
0.150456 0.042902 0.384857 255 0 0
-0.195339 0.017399 0.059805 255 0 0
-0.184284 0.044138 -0.132729 255 0 0
0.191378 -0.134020 0.073225 255 0 0
-0.174760 -0.119668 -0.193583 255 0 0
0.122958 0.125458 0.003652 255 0 0
-0.172106 0.028101 -0.260120 255 0 0
0.002037 0.131234 0.260005 255 0 0
-0.031857 0.040438 0.454980 255 0 0
-0.018414 -0.119881 0.462399 255 0 0
0.099349 0.129024 0.229031 255 0 0
0.162602 0.074566 0.066904 255 0 0
-0.134582 0.113821 -0.072339 255 0 0
-0.124351 0.477120 0.499390 255 0 0
-0.149616 0.074405 0.232404 255 0 0
0.121657 0.030149 -0.276730 255 0 0
0.203669 -0.037277 -0.222710 255 0 0
0.088028 0.026167 0.439880 255 0 0
0.167748 0.056538 -0.036758 255 0 0
-0.101339 0.133299 0.100902 255 0 0
-0.094716 0.140162 0.085802 255 0 0
0.067290 0.118866 -0.083440 255 0 0
-0.093194 -0.012174 -0.438541 255 0 0
-0.203034 -0.051875 0.058327 255 0 0
-0.202606 -0.015109 -0.329001 255 0 0
0.159177 -0.063396 -0.040275 255 0 0
-0.124292 0.046583 -0.203720 255 0 0
-0.192772 -0.045841 0.021649 255 0 0
0.080132 -0.126219 0.463189 255 0 0
0.177892 0.043085 0.183369 255 0 0
0.201630 -0.008044 0.216709 255 0 0
0.055450 0.060723 0.432732 255 0 0
-0.189815 -0.001170 -0.324759 255 0 0
-0.035009 0.007460 0.458055 255 0 0
-0.194661 0.003660 0.344487 255 0 0
-0.136700 0.127714 -0.003589 255 0 0
0.072118 -0.019186 -0.403181 255 0 0
0.174985 0.032216 0.289950 255 0 0
-0.109732 0.128872 -0.044516 255 0 0
-0.209439 -0.018319 -0.242087 255 0 0
-0.177140 -0.076955 -0.198300 255 0 0
0.204783 -0.022159 -0.040592 255 0 0
-0.102386 0.135192 -0.008370 255 0 0
-0.165529 0.069516 -0.021616 255 0 0
-0.085558 0.006833 0.467828 255 0 0
-0.049415 0.018169 -0.359443 255 0 0
-0.076814 0.031091 -0.265416 255 0 0
-0.089309 -0.062050 0.482186 255 0 0
-0.117383 0.045523 -0.202421 255 0 0
0.199933 -0.044528 0.190404 255 0 0
-0.128763 -0.010318 0.456088 255 0 0
-0.119893 0.135162 0.040531 255 0 0
0.046533 -0.086403 -0.490869 255 0 0
-0.176048 -0.090450 0.439208 255 0 0
0.188841 -0.023141 -0.322461 255 0 0
-0.042039 0.111659 -0.105244 255 0 0
-0.028197 -0.095095 -0.488897 255 0 0
-0.138790 0.082632 0.331348 255 0 0
-0.069099 -0.002606 -0.320028 255 0 0
0.193819 0.017595 -0.083763 255 0 0
-0.127156 -0.108802 -0.188834 255 0 0
0.129822 -0.056389 0.457124 255 0 0
-0.229586 0.053854 -0.120948 255 0 0
-0.150096 0.062699 0.287003 255 0 0
0.203579 -0.067687 -0.195324 255 0 0
0.130219 0.117487 0.398595 255 0 0
0.147948 -0.078919 -0.452330 255 0 0
-0.166828 0.069078 0.064536 255 0 0
-0.189261 0.023013 0.269005 255 0 0
-0.164814 -0.091330 0.025803 255 0 0
0.178776 0.049239 0.191006 255 0 0
0.147930 0.092870 0.168560 255 0 0
0.188303 0.017267 -0.161338 255 0 0
0.090445 0.103472 -0.100615 255 0 0
0.013016 0.125289 0.437068 255 0 0
0.074609 0.119707 0.386291 255 0 0
0.129580 0.053782 -0.198654 255 0 0
-0.156733 -0.106914 0.449438 255 0 0
-0.109637 0.120482 0.391574 255 0 0
-0.006250 -0.122986 0.459082 255 0 0
0.191256 -0.022791 -0.366340 255 0 0
0.009930 0.138290 0.196471 255 0 0
0.023088 0.140429 0.153120 255 0 0
0.169606 -0.049962 0.095160 255 0 0
-0.130294 0.055188 0.417295 255 0 0
0.151377 0.129129 0.452411 255 0 0
0.088611 0.124160 -0.066682 255 0 0
0.199344 -0.119297 0.220523 255 0 0
0.187091 -0.135449 0.074809 255 0 0
-0.089989 0.133947 -0.015913 255 0 0
0.192104 0.010811 0.163470 255 0 0
0.064817 0.136458 0.049731 255 0 0
0.110419 -0.122330 0.473132 255 0 0
0.070489 -0.028268 0.490761 255 0 0
0.169025 0.010448 0.431384 255 0 0
0.190465 -0.106702 -0.148582 255 0 0
-0.178914 0.037103 0.352316 255 0 0
0.169010 0.011042 -0.163856 255 0 0
0.213030 -0.018685 0.249663 255 0 0
0.203255 -0.014675 -0.222690 255 0 0
0.002970 0.072588 -0.180316 255 0 0
-0.141452 0.037370 0.421789 255 0 0
-0.161122 -0.083525 -0.044568 255 0 0
-0.019825 0.130767 -0.057665 255 0 0
-0.039920 -0.040804 0.481674 255 0 0
0.040179 -0.046468 0.475831 255 0 0
-0.153085 0.042433 0.356358 255 0 0
0.101967 -0.137173 0.395475 255 0 0
0.110076 -0.118371 0.456947 255 0 0
-0.153546 0.099097 0.008105 255 0 0
-0.043400 -0.104353 -0.443001 255 0 0
0.101101 0.135737 0.168465 255 0 0
0.167266 -0.067359 -0.148228 255 0 0
0.117440 0.117254 0.270767 255 0 0
0.133163 -0.039014 0.453378 255 0 0
-0.194587 -0.136265 -0.007993 255 0 0
0.112784 -0.108132 0.469101 255 0 0
0.124879 -0.044351 0.473632 255 0 0
-0.169912 0.044281 0.203266 255 0 0
0.198327 -0.029638 0.203573 255 0 0
-0.115373 0.045202 -0.215689 255 0 0
-0.143375 0.122010 -0.043364 255 0 0
0.193848 -0.017573 -0.293582 255 0 0
0.181691 0.029704 0.078071 255 0 0
-0.176474 0.042283 -0.040924 255 0 0
0.187623 0.014087 0.203600 255 0 0
0.107478 0.105613 0.377426 255 0 0
0.176994 0.028702 0.377463 255 0 0
-0.141253 0.119888 -0.051220 255 0 0
-0.205448 -0.048989 -0.082709 255 0 0
-0.116918 0.125428 -0.057023 255 0 0
-0.043239 0.089656 -0.148697 255 0 0
-0.093293 0.127592 0.215250 255 0 0
0.085084 0.136235 0.040795 255 0 0
0.142452 0.119918 -0.056247 255 0 0
-0.074398 0.020743 -0.343386 255 0 0
0.130636 -0.061876 -0.363008 255 0 0
0.097969 -0.125071 0.474439 255 0 0
-0.165535 -0.070678 -0.433454 255 0 0
0.185277 0.022699 0.347886 255 0 0
0.198552 0.001471 0.020152 255 0 0
0.072920 0.077215 -0.183952 255 0 0
0.190903 0.022093 -0.021452 255 0 0
0.060659 0.057135 -0.206894 255 0 0
0.199964 -0.021625 -0.151340 255 0 0
0.201681 -0.015477 0.223540 255 0 0
-0.150501 0.052945 0.337524 255 0 0
0.204177 -0.093564 0.205055 255 0 0
0.201181 -0.016383 0.311351 255 0 0
0.125636 -0.010788 -0.431179 255 0 0
-0.193257 -0.134205 0.112590 255 0 0
0.138135 0.093024 -0.102925 255 0 0
0.166508 0.056173 0.149724 255 0 0
-0.022573 -0.011814 -0.432731 255 0 0
-0.168606 0.026886 0.382464 255 0 0
0.130552 0.125208 0.119567 255 0 0
-0.005942 0.105936 -0.110739 255 0 0
-0.206877 -0.065997 -0.196175 255 0 0
0.175882 -0.118155 0.430828 255 0 0
0.030239 0.137619 0.142156 255 0 0
0.135240 0.012828 -0.362361 255 0 0
0.207919 -0.042395 -0.087621 255 0 0
-0.181334 -0.475833 -0.245454 255 0 0
0.152617 0.075964 -0.143468 255 0 0
0.201830 -0.033957 0.406070 255 0 0
0.058472 0.129084 -0.040395 255 0 0
0.162291 -0.018462 -0.265632 255 0 0
0.196059 0.016304 0.140587 255 0 0
-0.201143 -0.046022 0.135741 255 0 0
-0.212085 -0.110385 0.225527 255 0 0
0.123541 0.104522 0.327498 255 0 0
-0.012769 0.052437 -0.223733 255 0 0
-0.091117 0.095264 -0.121557 255 0 0
-0.083509 0.075288 0.418172 255 0 0
0.207364 -0.042157 -0.199411 255 0 0
0.153497 -0.120132 -0.446603 255 0 0
0.021297 -0.009227 -0.443702 255 0 0
-0.040321 -0.118191 -0.443038 255 0 0
-0.413008 -0.051123 0.249611 255 0 0
0.188865 -0.039629 0.426670 255 0 0
-0.011056 -0.000438 -0.281210 255 0 0
-0.140045 0.083274 0.293595 255 0 0
0.001506 0.138587 0.016366 255 0 0
0.207090 -0.013741 -0.248033 255 0 0
0.013906 0.128328 0.333138 255 0 0
-0.054248 0.141555 0.065391 255 0 0
0.205190 -0.084211 -0.009343 255 0 0
-0.101102 0.134442 0.186997 255 0 0
-0.155003 0.117681 0.381675 255 0 0
-0.146148 -0.106650 -0.444063 255 0 0
-0.079429 0.088393 -0.147293 255 0 0
-0.023413 0.132361 0.163672 255 0 0
-0.134768 0.039224 0.416514 255 0 0
-0.095075 -0.131341 0.416921 255 0 0
0.165131 0.008281 -0.325031 255 0 0
0.037471 -0.103978 -0.488468 255 0 0
0.057513 0.020811 0.470515 255 0 0
-0.189538 -0.022425 0.405769 255 0 0
0.138097 0.092617 0.308197 255 0 0
-0.134333 0.023074 -0.303760 255 0 0
-0.030418 0.015265 -0.282139 255 0 0
0.042505 -0.048629 0.483597 255 0 0
0.200862 -0.013249 -0.243668 255 0 0
-0.078890 0.013943 0.312721 255 0 0
0.172617 -0.099690 -0.378826 255 0 0
0.024377 0.053008 -0.227534 255 0 0
0.153882 0.126370 0.447706 255 0 0
0.146147 0.062617 0.018115 255 0 0
0.157634 0.088122 -0.091335 255 0 0
-0.153436 -0.052974 -0.354411 255 0 0
-0.089307 -0.012071 -0.374267 255 0 0
-0.204130 -0.025487 -0.217601 255 0 0
-0.119757 -0.136848 -0.466413 255 0 0
0.184903 0.019634 -0.223200 255 0 0
-0.094480 0.097348 -0.119484 255 0 0
-0.097545 0.075593 0.406422 255 0 0
0.189384 0.025273 0.235832 255 0 0
0.035815 -0.102270 -0.451046 255 0 0
0.103358 0.046330 0.440779 255 0 0
0.209040 -0.109358 0.046163 255 0 0
0.159291 0.044239 0.351981 255 0 0
-0.130880 0.121678 0.218369 255 0 0
-0.133072 0.019438 -0.323165 255 0 0
-0.200986 -0.021128 -0.175826 255 0 0
-0.041859 0.124769 0.299075 255 0 0
-0.088735 0.123087 0.307588 255 0 0
-0.013829 0.138390 0.003497 255 0 0
-0.144946 0.071581 -0.164015 255 0 0
0.143629 0.119015 -0.058961 255 0 0
-0.104411 0.094115 -0.112826 255 0 0
0.177674 0.034667 0.202331 255 0 0
-0.094409 0.026737 -0.309229 255 0 0
-0.028025 0.005790 -0.295674 255 0 0
-0.046699 0.133613 -0.030438 255 0 0
0.085538 -0.019259 -0.416673 255 0 0
0.015213 0.087115 -0.156225 255 0 0
0.066018 0.132451 0.245080 255 0 0
-0.186350 0.016447 -0.225660 255 0 0
0.004885 -0.017216 -0.437255 255 0 0
0.072060 0.120953 0.296891 255 0 0
-0.047868 -0.103235 0.429253 255 0 0
-0.059949 -0.013841 -0.430312 255 0 0
0.098314 -0.003004 -0.278887 255 0 0
-0.207099 -0.077771 -0.188200 255 0 0
-0.149351 -0.017836 -0.256606 255 0 0
0.127388 -0.139665 -0.420779 255 0 0
0.021982 -0.133727 0.277793 255 0 0
-0.201458 -0.063123 0.076480 255 0 0
0.154069 0.015205 -0.350024 255 0 0
-0.001749 0.140401 0.154838 255 0 0
-0.014388 0.040407 -0.251691 255 0 0
0.087124 -0.025479 0.480985 255 0 0
0.063368 0.036468 -0.273408 255 0 0
-0.145513 0.068081 0.220914 255 0 0
0.207697 -0.025641 0.256080 255 0 0
0.154795 0.083908 0.061013 255 0 0
-0.191482 -0.010428 0.401874 255 0 0
0.002163 -0.111964 -0.443049 255 0 0
0.025815 0.009194 0.466581 255 0 0
-0.032442 0.130810 -0.056127 255 0 0
0.162802 -0.046954 0.014952 255 0 0
0.192919 0.016434 -0.164042 255 0 0
0.038794 -0.053264 -0.486659 255 0 0
0.153653 0.057113 0.274127 255 0 0
0.109453 -0.120459 -0.476620 255 0 0
0.164516 0.067241 0.043219 255 0 0
-0.084909 0.135953 0.134917 255 0 0
-0.106060 0.126885 0.260086 255 0 0
-0.117981 0.044773 -0.221040 255 0 0
0.201772 -0.052207 0.407915 255 0 0
-0.147475 0.030126 -0.273914 255 0 0
-0.001179 -0.023911 0.459648 255 0 0
-0.202238 -0.011077 -0.292160 255 0 0
-0.096041 0.119130 0.324110 255 0 0
0.150273 0.081136 0.235465 255 0 0
0.140371 0.104214 0.210991 255 0 0
0.194868 0.004529 -0.189967 255 0 0
0.180549 -0.025177 -0.227173 255 0 0
-0.205466 -0.046780 -0.130844 255 0 0
0.201388 -0.013007 0.324947 255 0 0
-0.138456 -0.108932 -0.193346 255 0 0
0.123589 0.102585 -0.093777 255 0 0
0.081174 -0.013387 -0.448613 255 0 0
0.071401 -0.010098 -0.444572 255 0 0
-0.197014 -0.038709 0.143967 255 0 0
-0.207392 -0.072461 -0.169974 255 0 0
-0.002223 -0.095060 -0.489458 255 0 0
-0.070400 0.024781 -0.337736 255 0 0
0.077255 -0.137545 0.383991 255 0 0
0.015643 0.146975 0.118581 255 0 0
-0.156401 0.039389 0.337562 255 0 0
0.156233 -0.007580 -0.408926 255 0 0
0.205484 -0.108265 0.053615 255 0 0
-0.034521 -0.109801 -0.444191 255 0 0
0.013759 0.140513 0.175124 255 0 0
-0.159422 0.077552 0.093194 255 0 0
-0.055409 0.002914 0.466252 255 0 0
0.129642 0.095299 -0.119196 255 0 0
0.063856 0.041384 -0.269150 255 0 0
0.100244 0.033090 -0.287298 255 0 0
-0.183563 -0.063446 -0.204717 255 0 0
-0.106098 0.108053 -0.097095 255 0 0
0.153076 0.075781 0.114764 255 0 0
-0.197280 -0.122022 -0.118602 255 0 0
0.069090 0.128277 0.287803 255 0 0
-0.131090 -0.494157 -0.134394 255 0 0
-0.012459 0.130066 -0.040772 255 0 0
0.178861 0.001962 -0.289869 255 0 0
0.189632 -0.107503 0.428314 255 0 0
0.168905 -0.010571 -0.374641 255 0 0
0.066399 0.038487 -0.244780 255 0 0
0.057676 -0.097534 -0.489662 255 0 0
0.202644 -0.050055 0.101556 255 0 0
-0.204602 -0.094734 -0.035351 255 0 0
0.106533 0.136954 0.048024 255 0 0
-0.022841 0.119327 -0.071209 255 0 0
0.203498 -0.064244 0.079866 255 0 0
0.163579 -0.090436 0.454832 255 0 0
-0.164200 0.064014 -0.154186 255 0 0
-0.188640 -0.099255 -0.192913 255 0 0
0.144287 0.108092 0.111786 255 0 0
0.153013 0.084174 0.059762 255 0 0
0.030398 0.128502 -0.067068 255 0 0
0.200305 -0.065573 0.192840 255 0 0
0.027906 0.135110 0.101901 255 0 0
0.057518 0.027570 -0.330009 255 0 0
0.204400 -0.080342 -0.374170 255 0 0
0.183100 0.007888 0.224634 255 0 0
0.096116 0.052795 -0.200512 255 0 0
0.196000 -0.023205 0.155406 255 0 0
0.122057 0.116409 0.413882 255 0 0
0.177862 0.038959 0.022564 255 0 0
0.135157 0.100675 0.289798 255 0 0
-0.187392 -0.015290 -0.361524 255 0 0
0.009126 0.011219 -0.399402 255 0 0
-0.013346 0.115125 0.382518 255 0 0
-0.167942 0.014669 0.003559 255 0 0
-0.050575 0.138045 0.197504 255 0 0
0.195646 0.005712 0.366640 255 0 0
-0.058026 0.074973 -0.173273 255 0 0
0.111763 -0.044832 -0.454248 255 0 0
-0.115074 0.125390 0.252982 255 0 0
0.158788 -0.066614 0.027271 255 0 0
-0.191067 0.000183 -0.299700 255 0 0
0.155848 0.072778 0.226734 255 0 0
0.019642 -0.012848 -0.364536 255 0 0
0.163256 -0.084227 -0.430730 255 0 0
-0.154119 0.090290 0.078999 255 0 0
-0.004203 0.043060 -0.221062 255 0 0
-0.145813 0.081774 0.116713 255 0 0
-0.051340 -0.098299 0.487611 255 0 0
-0.202978 -0.026832 -0.047843 255 0 0
-0.087783 -0.093933 0.481058 255 0 0
0.130504 0.120960 0.192701 255 0 0
-0.184564 0.029122 0.267403 255 0 0
0.167534 -0.014065 -0.088679 255 0 0
-0.070238 0.062723 -0.185716 255 0 0
-0.166890 -0.019082 -0.309228 255 0 0
-0.162953 -0.087905 -0.100721 255 0 0
0.077208 0.120217 0.340997 255 0 0
-0.028883 0.118857 0.413190 255 0 0
0.004267 0.124555 0.435361 255 0 0
-0.206015 -0.102298 0.017770 255 0 0
0.198244 -0.061566 0.116168 255 0 0
-0.019780 0.135320 -0.018256 255 0 0
-0.116195 0.124875 0.261746 255 0 0
-0.092731 -0.030471 0.481062 255 0 0
-0.203510 -0.046733 0.083782 255 0 0
0.033334 0.108374 -0.103659 255 0 0
-0.168955 -0.012634 0.052161 255 0 0
-0.061360 -0.010057 -0.387091 255 0 0
0.135990 -0.112864 0.433388 255 0 0
0.135017 0.096160 0.257071 255 0 0
0.001262 -0.131481 0.232188 255 0 0
-0.165208 0.065582 -0.005080 255 0 0
0.156784 0.073168 0.058332 255 0 0
-0.133574 0.018071 0.452618 255 0 0
0.201197 -0.086355 0.185152 255 0 0
-0.200197 -0.120106 -0.013574 255 0 0
-0.200322 -0.108410 0.003452 255 0 0
0.204032 -0.096262 0.009868 255 0 0
0.093498 0.080569 -0.157034 255 0 0
-0.046341 0.138234 0.088947 255 0 0
0.065982 -0.019382 -0.414305 255 0 0
0.032982 0.113731 0.365396 255 0 0
0.016780 0.135760 0.250241 255 0 0
0.037276 -0.111015 -0.443432 255 0 0
0.186737 0.023432 0.326313 255 0 0
-0.097963 -0.007676 -0.336958 255 0 0
0.126297 0.014742 -0.340158 255 0 0
-0.125176 0.025576 -0.268204 255 0 0
-0.205017 -0.086814 0.051436 255 0 0
0.192311 -0.129580 -0.189691 255 0 0
-0.193191 -0.040003 0.421065 255 0 0
0.011026 0.121095 0.442510 255 0 0
-0.175346 -0.015955 -0.165203 255 0 0
0.145215 0.085158 0.262856 255 0 0
0.068107 0.033632 -0.273616 255 0 0
0.089682 0.020744 -0.342650 255 0 0
0.116810 0.083484 0.386059 255 0 0
0.196383 -0.094880 -0.025567 255 0 0
0.154623 0.087293 -0.103540 255 0 0
0.171429 -0.017610 -0.049036 255 0 0
0.102965 0.038707 -0.271965 255 0 0
0.203460 -0.021213 -0.313008 255 0 0
0.153346 0.076304 0.165499 255 0 0
-0.053738 0.063593 -0.199131 255 0 0
-0.107660 -0.011107 -0.411846 255 0 0
0.198233 -0.009821 -0.327853 255 0 0
