ply
format ascii 1.0
element vertex 1308
property float x
property float y
property float z
property uchar red
property uchar green
property uchar blue
end_header
0.029932 0.142881 0.064081 255 0 0
-0.079107 0.142898 0.058034 255 0 0
0.108007 0.090092 0.407364 255 0 0
0.019413 0.052373 -0.179620 255 0 0
-0.047623 -0.151528 -0.264341 255 0 0
-0.178314 -0.005359 -0.315364 255 0 0
0.025392 -0.144356 0.339568 255 0 0
0.181469 0.025149 0.390350 255 0 0
0.086486 0.140577 0.286967 255 0 0
-0.122484 0.140352 -0.026254 255 0 0
-0.144918 0.034142 -0.180385 255 0 0
-0.173977 0.025157 0.413223 255 0 0
0.000580 0.062675 0.455406 255 0 0
-0.036297 0.148707 0.135947 255 0 0
0.027608 -0.148048 0.209282 255 0 0
-0.059668 -0.150479 -0.333265 255 0 0
0.103379 -0.125640 0.196739 255 0 0
-0.120906 -0.144243 -0.467454 255 0 0
0.090069 -0.155032 -0.357420 255 0 0
-0.063306 -0.033446 0.470443 255 0 0
0.125789 -0.053182 0.461638 255 0 0
0.113688 0.118212 -0.078247 255 0 0
0.187656 -0.016474 0.235954 255 0 0
0.078316 0.136850 0.016769 255 0 0
-0.132700 -0.153602 0.156264 255 0 0
0.188591 -0.022222 -0.132355 255 0 0
-0.024070 -0.145826 0.289164 255 0 0
-0.002003 -0.155698 0.161127 255 0 0
-0.020053 0.072656 -0.151112 255 0 0
-0.183862 -0.104065 0.108447 255 0 0
0.137308 -0.119199 0.420948 255 0 0
0.109495 0.019682 -0.306073 255 0 0
-0.053622 0.141070 0.151541 255 0 0
0.000613 -0.006875 0.471903 255 0 0
0.185804 0.009394 0.283586 255 0 0
0.135447 0.112652 0.012582 255 0 0
-0.068015 0.038563 -0.185902 255 0 0
-0.091226 -0.097933 -0.265277 255 0 0
-0.183334 -0.038099 -0.296241 255 0 0
-0.111901 -0.126525 0.424703 255 0 0
0.092710 -0.001986 -0.425871 255 0 0
0.063100 -0.152691 0.229665 255 0 0
-0.031827 -0.154497 0.054888 255 0 0
-0.093249 0.013526 -0.345464 255 0 0
0.103178 -0.156568 -0.070086 255 0 0
0.053050 -0.156861 -0.333556 255 0 0
-0.137850 -0.143935 -0.134769 255 0 0
0.189932 0.004413 -0.042275 255 0 0
0.048893 0.054874 0.001444 255 0 0
-0.161472 -0.048709 0.357232 255 0 0
0.135744 0.116023 0.041414 255 0 0
-0.193730 -0.051860 0.175377 255 0 0
-0.082478 -0.145864 0.338731 255 0 0
0.171668 -0.135597 0.411960 255 0 0
-0.029899 0.142638 0.024641 255 0 0
0.061839 -0.153969 -0.242906 255 0 0
0.099032 -0.154877 -0.074179 255 0 0
0.045870 -0.144752 0.353971 255 0 0
-0.051266 -0.149901 0.271782 255 0 0
-0.173528 -0.150607 0.013193 255 0 0
-0.007930 0.027544 -0.267705 255 0 0
0.179624 -0.066810 -0.054922 255 0 0
0.003432 -0.156081 -0.242933 255 0 0
0.089605 -0.143208 0.345419 255 0 0
-0.068114 0.030153 -0.251765 255 0 0
0.040053 -0.153350 -0.220762 255 0 0
0.021981 -0.147158 0.063753 255 0 0
-0.080209 0.125152 -0.079755 255 0 0
0.066708 -0.019813 0.460667 255 0 0
-0.183877 -0.032490 -0.383129 255 0 0
0.141791 0.061561 0.407007 255 0 0
0.200875 -0.041651 0.340438 255 0 0
0.066397 -0.151827 -0.103558 255 0 0
0.014141 0.038583 -0.198048 255 0 0
-0.060038 -0.097548 0.492053 255 0 0
-0.129070 0.136746 0.136358 255 0 0
-0.005517 -0.156110 0.084220 255 0 0
0.015422 0.139827 0.403537 255 0 0
0.147665 0.080318 0.219829 255 0 0
0.152014 -0.123870 -0.225684 255 0 0
0.180931 -0.007406 0.135493 255 0 0
-0.144913 -0.145177 -0.446405 255 0 0
-0.130407 0.124497 0.345778 255 0 0
0.015698 -0.144766 0.272202 255 0 0
-0.140796 0.066832 -0.141483 255 0 0
0.155516 0.026847 -0.195278 255 0 0
0.038866 0.064321 -0.168984 255 0 0
0.060099 0.119827 -0.092122 255 0 0
-0.190747 -0.012512 0.320733 255 0 0
-0.187768 -0.011682 0.054566 255 0 0
0.068004 -0.149374 0.206601 255 0 0
-0.066668 0.059108 0.443643 255 0 0
-0.150068 -0.151924 -0.225503 255 0 0
0.041716 0.062394 -0.164005 255 0 0
0.073656 0.010277 -0.360049 255 0 0
0.005198 -0.151593 0.152326 255 0 0
0.146100 0.020650 -0.255731 255 0 0
-0.087180 -0.142280 0.253468 255 0 0
0.151562 0.060404 0.334521 255 0 0
-0.164697 0.065867 0.071570 255 0 0
0.035102 -0.154873 -0.270375 255 0 0
0.130642 0.097618 -0.107166 255 0 0
0.062517 0.096125 -0.121507 255 0 0
-0.157664 0.067966 -0.121128 255 0 0
-0.169067 0.031763 0.072740 255 0 0
0.189912 -0.018835 0.001161 255 0 0
0.014312 0.072673 0.447727 255 0 0
0.166990 0.041485 0.116525 255 0 0
-0.093057 -0.156132 0.000466 255 0 0
0.188270 -0.094987 -0.137964 255 0 0
-0.148605 0.093715 0.134409 255 0 0
-0.179292 0.020261 -0.011312 255 0 0
-0.156114 -0.155904 0.140061 255 0 0
0.105593 -0.095865 0.201601 255 0 0
0.122767 -0.118763 0.384202 255 0 0
-0.082369 0.106227 -0.108065 255 0 0
0.142094 0.095559 -0.034510 255 0 0
-0.180829 -0.107888 0.084453 255 0 0
-0.088689 -0.046907 0.241084 255 0 0
-0.148660 0.093260 0.372175 255 0 0
-0.083648 0.139752 0.073200 255 0 0
0.023822 -0.143780 0.329458 255 0 0
0.089028 -0.126123 -0.289934 255 0 0
0.071111 0.488663 0.433159 0 255 0
-0.173907 -0.459625 0.090210 0 255 0
-0.117681 -0.137355 -0.234312 0 255 0
0.212934 -0.287325 0.401363 0 255 0
-0.181682 -0.098931 -0.444238 0 255 0
0.414588 -0.116091 0.024323 0 255 0
0.060957 0.137460 -0.068946 0 255 0
-0.422253 -0.008336 0.167139 0 255 0
0.086996 -0.032340 -0.472343 0 255 0
-0.104335 -0.134672 0.427172 0 255 0
-0.143579 -0.056416 0.226218 0 255 0
-0.059902 0.148461 0.314553 0 255 0
-0.344188 -0.393373 -0.334008 0 255 0
-0.090431 -0.266624 -0.024208 0 255 0
-0.011908 0.149788 0.021306 0 255 0
0.019494 0.006484 -0.433114 0 255 0
-0.058843 -0.160230 0.161894 0 255 0
-0.390589 0.419210 -0.492076 0 255 0
-0.499112 0.450121 -0.369560 0 255 0
-0.034585 -0.497178 0.362527 0 255 0
-0.041770 -0.029792 -0.478302 0 255 0
-0.121210 0.144728 0.355394 0 255 0
-0.145277 -0.160952 -0.094732 0 255 0
-0.144154 0.036528 -0.183868 0 255 0
0.051635 -0.162662 0.142035 0 255 0
0.124271 -0.161078 -0.219925 0 255 0
-0.011643 -0.127963 0.447006 0 255 0
0.166997 0.057295 0.220619 0 255 0
-0.107474 0.141262 0.007004 0 255 0
0.170291 -0.157376 -0.295885 0 255 0
-0.149887 -0.059340 -0.465359 0 255 0
0.192918 0.013124 0.183748 0 255 0
0.158838 -0.127466 -0.461147 0 255 0
0.200345 -0.081926 -0.007026 0 255 0
-0.119295 0.152679 0.037850 0 255 0
-0.078393 0.046091 0.463051 0 255 0
0.196018 0.012579 0.355763 0 255 0
-0.344511 0.060411 -0.098844 0 255 0
-0.443432 0.489838 0.272531 0 255 0
0.043862 -0.151025 0.321347 0 255 0
0.476096 -0.326920 0.020815 0 255 0
0.009243 -0.163143 -0.372647 0 255 0
-0.467158 0.181120 0.124590 0 255 0
-0.019121 -0.127305 0.453793 0 255 0
-0.151738 -0.159146 -0.027720 0 255 0
-0.372419 0.083559 -0.028384 0 255 0
-0.191664 -0.021949 0.032351 0 255 0
-0.009058 0.028786 -0.314789 0 255 0
-0.074217 -0.162256 0.088358 0 255 0
0.094122 -0.455984 0.019558 0 255 0
-0.026057 0.002730 -0.471620 0 255 0
0.177975 0.004058 -0.297568 0 255 0
-0.174941 -0.137059 -0.444552 0 255 0
-0.055919 0.002138 0.472180 0 255 0
-0.103353 -0.154642 -0.229000 0 255 0
-0.102711 -0.049796 0.237618 0 255 0
-0.196070 -0.065370 -0.390645 0 255 0
-0.205409 -0.037447 0.311845 0 255 0
0.067159 -0.147125 0.351835 0 255 0
0.150722 0.107873 0.281828 0 255 0
-0.371958 0.385020 0.403948 0 255 0
0.200923 -0.057002 0.383150 0 255 0
0.146031 0.054733 -0.172928 0 255 0
0.130717 -0.026260 0.465097 0 255 0
0.079785 0.146963 -0.024708 0 255 0
-0.142970 0.122289 0.323403 0 255 0
0.276231 -0.234065 0.235762 0 255 0
-0.084102 -0.147609 0.378089 0 255 0
-0.192559 -0.024803 -0.132342 0 255 0
0.041782 0.150367 0.048290 0 255 0
-0.114459 0.161376 0.014543 0 255 0
0.445972 -0.094105 -0.045981 0 255 0
0.188685 -0.153997 -0.089424 0 255 0
0.424398 0.322373 -0.242254 0 255 0
-0.173754 0.050184 0.220548 0 255 0
0.029146 0.157879 0.218380 0 255 0
-0.106035 0.017876 -0.362156 0 255 0
-0.159202 -0.055507 0.228741 0 255 0
0.209622 -0.038445 0.298617 0 255 0
0.109994 -0.059145 -0.258749 0 255 0
0.271669 -0.389553 -0.043669 0 255 0
0.185508 -0.108344 0.202527 0 255 0
0.159647 -0.160709 -0.217766 0 255 0
0.043806 0.147158 0.378301 0 255 0
-0.068994 -0.320543 -0.002032 0 255 0
0.075214 0.057729 -0.177930 0 255 0
0.065465 0.149192 0.354832 0 255 0
0.191370 -0.052761 0.052497 0 255 0
0.179838 -0.119195 0.020193 0 255 0
-0.143484 0.124313 0.310003 0 255 0
0.011074 -0.000208 -0.466512 0 255 0
-0.164018 -0.151607 0.200677 0 255 0
-0.266305 0.239803 0.367437 0 255 0
-0.466102 0.000847 0.365867 0 255 0
-0.095701 -0.118075 0.373470 0 255 0
-0.095416 -0.090407 -0.296642 0 255 0
-0.129894 0.080186 0.421375 0 255 0
-0.197291 -0.021654 0.160868 0 255 0
-0.049205 -0.082340 0.504860 0 255 0
-0.136070 0.126439 0.178874 0 255 0
-0.085213 0.016859 -0.358642 0 255 0
-0.193940 0.015629 0.301394 0 255 0
-0.143021 -0.162867 -0.021991 0 255 0
-0.041777 0.009461 0.474954 0 255 0
0.127602 0.090760 0.415250 0 255 0
-0.076752 -0.160265 0.183648 0 255 0
0.072576 0.152326 0.016266 0 255 0
0.121342 0.143748 0.360543 0 255 0
0.073080 -0.152759 0.275906 0 255 0
0.161123 -0.127516 -0.455779 0 255 0
-0.021360 0.144027 0.420377 0 255 0
-0.177707 0.010775 0.429963 0 255 0
0.036535 0.051416 -0.189899 0 255 0
0.124338 -0.162782 -0.203365 0 255 0
0.177970 -0.092512 0.209313 0 255 0
0.186473 -0.038898 0.268842 0 255 0
-0.082471 -0.164663 -0.343809 0 255 0
0.195372 -0.006560 -0.002758 0 255 0
-0.191768 0.167809 -0.184880 0 255 0
0.169074 0.372969 -0.167230 0 255 0
0.159440 0.098126 -0.056988 0 255 0
-0.196738 -0.049448 -0.302406 0 255 0
-0.005371 0.150513 0.262937 0 255 0
-0.195796 -0.009170 0.017599 0 255 0
0.080506 -0.157429 -0.192282 0 255 0
0.137654 -0.154107 -0.417592 0 255 0
-0.160142 -0.122484 0.317224 0 255 0
-0.057778 0.143180 -0.037686 0 255 0
0.128627 0.086407 -0.125697 0 255 0
-0.082583 -0.151387 0.338337 0 255 0
-0.384523 0.036491 0.457225 0 255 0
0.105945 -0.003557 -0.447594 0 255 0
-0.141879 -0.171242 -0.194941 0 255 0
0.150028 0.037643 -0.195899 0 255 0
0.066452 0.074130 0.444664 0 255 0
0.071556 0.156172 0.346730 0 255 0
-0.066220 -0.164096 -0.093080 0 255 0
0.063706 0.151457 0.080785 0 255 0
-0.215402 -0.387960 -0.026919 0 255 0
-0.199477 -0.051018 -0.048562 0 255 0
0.387921 0.379534 -0.377270 0 255 0
-0.159400 -0.158396 0.160198 0 255 0
0.097901 0.089310 -0.133141 0 255 0
-0.068966 -0.158876 0.212540 0 255 0
0.334241 -0.161754 0.391747 0 255 0
-0.041456 -0.151909 0.286750 0 255 0
-0.004293 0.151853 0.361495 0 255 0
-0.140327 0.130753 0.023901 0 255 0
0.129802 0.245431 -0.336769 0 255 0
0.011285 -0.139813 0.409345 0 255 0
0.194711 -0.120404 0.178744 0 255 0
0.377456 -0.057552 0.347522 0 255 0
-0.007601 0.063939 -0.187757 0 255 0
-0.158203 -0.168166 -0.065201 0 255 0
0.017234 0.160522 0.241254 0 255 0
0.173884 0.041140 -0.058220 0 255 0
-0.073285 -0.168285 -0.152631 0 255 0
0.017335 -0.113193 -0.488994 0 255 0
-0.173813 0.063368 0.011026 0 255 0
-0.192569 -0.047053 -0.031715 0 255 0
-0.016614 0.037284 0.472959 0 255 0
-0.101313 0.105058 -0.111355 0 255 0
0.005372 -0.142053 0.392638 0 255 0
-0.004842 -0.160207 -0.266885 0 255 0
-0.171497 -0.159443 -0.220283 0 255 0
0.145563 0.116305 0.348902 0 255 0
0.179062 -0.009398 0.447166 0 255 0
-0.150640 0.108869 0.059097 0 255 0
0.018719 0.143628 0.388123 0 255 0
0.486834 0.332823 -0.278792 0 255 0
0.188733 0.021553 0.064318 0 255 0
0.000239 -0.156530 0.265763 0 255 0
-0.163122 -0.165730 -0.119998 0 255 0
0.189505 -0.112340 -0.126979 0 255 0
-0.188517 -0.029266 0.411172 0 255 0
-0.187914 -0.117449 0.132917 0 255 0
0.126995 -0.158424 0.176862 0 255 0
0.108496 0.156970 0.274746 0 255 0
-0.041601 0.156196 0.184693 0 255 0
0.182537 0.032984 -0.039733 0 255 0
0.465724 -0.286984 0.267112 0 255 0
-0.050580 -0.162577 -0.197012 0 255 0
-0.079145 -0.148482 -0.465494 0 255 0
0.018592 -0.158141 -0.397148 0 255 0
0.200191 0.492094 -0.146423 0 255 0
-0.059244 -0.160007 -0.066027 0 255 0
-0.027739 -0.157898 0.193291 0 255 0
0.099270 -0.158109 -0.089919 0 255 0
0.187711 -0.103294 0.435339 0 255 0
0.163216 0.060054 -0.066909 0 255 0
-0.184605 -0.105268 0.046023 0 255 0
-0.175745 0.034703 -0.087211 0 255 0
0.082626 0.041440 -0.225666 0 255 0
0.133327 -0.169974 -0.103864 0 255 0
-0.109053 -0.012014 0.465460 0 255 0
-0.138149 -0.157754 -0.440971 0 255 0
-0.098347 -0.100602 0.348777 0 255 0
-0.060808 -0.003938 -0.465016 0 255 0
0.179328 0.017933 -0.203404 0 255 0
0.189568 -0.303265 0.216098 0 255 0
0.013212 0.149520 0.297012 0 255 0
-0.057045 -0.163011 -0.101636 0 255 0
0.249566 0.440180 -0.316141 0 255 0
-0.055240 -0.031641 0.472303 0 255 0
-0.184981 -0.298394 0.437744 0 255 0
0.041684 0.145248 0.389863 0 255 0
0.029086 -0.132593 0.461882 0 255 0
-0.121616 -0.157396 -0.462272 0 255 0
0.023638 0.152788 0.055447 0 255 0
0.164636 0.075522 0.361841 0 255 0
0.141474 0.113739 0.182854 0 255 0
0.074992 0.145886 0.300325 0 255 0
-0.072444 -0.159540 0.124766 0 255 0
-0.040299 0.045534 0.471821 0 255 0
-0.109505 0.005772 -0.408973 0 255 0
0.104127 -0.037962 0.290091 0 255 0
-0.126470 -0.042208 0.271473 0 255 0
0.020383 0.148651 -0.002363 0 255 0
0.183543 -0.047806 0.269471 0 255 0
-0.259394 -0.010666 -0.374312 0 255 0
0.127147 0.143937 0.193351 0 255 0
0.201795 -0.038377 -0.119193 0 255 0
0.163279 0.070396 0.270889 0 255 0
-0.158077 0.352569 0.470835 0 255 0
0.094249 -0.159845 -0.351655 0 255 0
0.092998 -0.097423 0.357205 0 255 0
0.005433 -0.154620 0.248177 0 255 0
0.156285 -0.404999 0.074473 0 255 0
-0.031715 0.149576 0.363062 0 255 0
-0.125012 -0.125559 -0.235002 0 255 0
-0.055920 0.136786 -0.081912 0 255 0
0.177737 0.016591 -0.207019 0 255 0
0.177236 0.033108 -0.068297 0 255 0
0.087687 -0.052267 0.473992 0 255 0
0.353960 0.005221 -0.311342 0 255 0
0.069315 -0.144885 0.427053 0 255 0
0.042541 -0.160702 -0.270785 0 255 0
0.111211 -0.168650 -0.046862 0 255 0
0.039315 0.058089 0.459531 0 255 0
-0.003952 0.153823 0.184195 0 255 0
0.114796 0.003535 -0.407758 0 255 0
-0.032930 -0.010233 -0.458043 0 255 0
-0.196720 0.007160 0.084340 0 255 0
0.067474 -0.162902 -0.307425 0 255 0
0.098101 -0.087537 -0.390564 0 255 0
-0.124343 -0.012418 -0.445775 0 255 0
0.156806 0.075650 0.375087 0 255 0
-0.324098 -0.158350 0.236967 0 255 0
0.069102 0.153696 0.248199 0 255 0
-0.166330 0.006995 -0.383391 0 255 0
0.163126 -0.140515 0.403429 0 255 0
0.176969 0.043747 0.061714 0 255 0
0.162155 0.066345 -0.077815 0 255 0
-0.461300 -0.066154 -0.037243 0 255 0
-0.105183 -0.158730 0.024702 0 255 0
-0.162927 -0.004904 -0.377603 0 255 0
-0.107672 0.149559 0.342758 0 255 0
-0.144072 -0.050568 0.472988 0 255 0
0.165117 0.055327 0.292262 0 255 0
0.150783 -0.105186 0.210465 0 255 0
0.001419 0.001010 -0.462366 0 255 0
0.429588 0.344933 -0.193358 0 255 0
-0.012825 -0.157859 0.181816 0 255 0
-0.021405 0.009563 -0.433564 0 255 0
0.006927 -0.117137 0.487668 0 255 0
-0.072395 -0.141913 -0.486465 0 255 0
0.066325 0.057940 0.462555 0 255 0
0.129378 0.139853 0.048085 0 255 0
0.131289 -0.114548 -0.472579 0 255 0
-0.065559 0.147878 0.009131 0 255 0
-0.136660 0.135289 0.209866 0 255 0
-0.062361 -0.175427 -0.080217 0 255 0
-0.095696 0.007411 -0.430421 0 255 0
0.108877 0.113771 0.406003 0 255 0
0.128296 -0.040813 -0.342780 0 255 0
-0.005011 -0.163316 -0.099841 0 255 0
0.189095 -0.145707 -0.163014 0 255 0
0.084510 0.145097 0.388624 0 255 0
0.119817 0.233165 0.043406 0 255 0
-0.190756 -0.054237 -0.194326 0 255 0
0.161784 -0.102176 0.376386 0 255 0
0.147620 -0.062755 -0.384188 0 255 0
0.016439 0.084892 -0.148560 0 255 0
-0.025412 -0.155502 -0.436092 0 255 0
0.064677 0.151200 0.252514 0 255 0
-0.050673 0.146833 -0.029672 0 255 0
0.197242 -0.007824 0.353717 0 255 0
0.059336 0.043687 0.470016 0 255 0
0.167931 0.036514 -0.077794 0 255 0
0.437537 0.149273 0.191246 0 255 0
0.089044 0.046480 0.460415 0 255 0
-0.362474 -0.372538 0.054122 0 255 0
-0.165328 0.486834 0.259024 0 255 0
0.122523 0.150844 0.106076 0 255 0
0.170369 0.081539 0.117242 0 255 0
-0.156022 -0.040167 -0.345710 0 255 0
-0.168766 -0.157695 -0.138712 0 255 0
0.058033 0.098760 -0.127347 0 255 0
0.057101 -0.161860 -0.068775 0 255 0
0.375550 0.467920 -0.034497 0 255 0
0.102645 -0.143616 0.265110 0 255 0
-0.116323 -0.162782 -0.111582 0 255 0
-0.001472 -0.141994 -0.483420 0 255 0
-0.168353 0.071369 0.396081 0 255 0
0.204245 -0.078044 0.371209 0 255 0
-0.127317 -0.068173 0.218061 0 255 0
-0.073838 -0.148288 -0.479062 0 255 0
-0.054258 0.150878 0.303665 0 255 0
0.068480 -0.007191 -0.463534 0 255 0
-0.331058 0.189521 -0.471682 0 255 0
-0.171603 -0.067013 0.351711 0 255 0
0.018521 0.089830 -0.143397 0 255 0
-0.171184 0.053806 0.306904 0 255 0
0.478927 0.498208 0.279452 0 255 0
-0.076085 0.145709 0.324105 0 255 0
0.190217 0.004571 0.149307 0 255 0
0.109762 0.156041 0.165456 0 255 0
-0.472082 0.230860 -0.369704 0 255 0
0.185853 -0.149145 0.126565 0 255 0
0.008105 -0.289989 0.367539 0 255 0
0.364450 0.162747 0.483362 0 255 0
-0.085764 -0.161041 -0.061176 0 255 0
0.455318 0.273367 0.121456 0 255 0
0.167850 -0.028350 0.444878 0 255 0
-0.271780 0.403925 0.243637 0 255 0
0.080402 0.102603 0.421443 0 255 0
0.030111 -0.154838 0.245905 0 255 0
-0.068611 0.015094 -0.371360 0 255 0
-0.146002 0.106393 0.035959 0 255 0
-0.005626 -0.160217 -0.189342 0 255 0
0.114766 0.022038 -0.319259 0 255 0
-0.028882 -0.044326 -0.484251 0 255 0
-0.001460 0.009111 0.478480 0 255 0
-0.001729 -0.148423 -0.461830 0 255 0
0.137123 -0.112129 -0.467988 0 255 0
-0.008618 -0.159497 0.089109 0 255 0
-0.182953 -0.119518 0.080020 0 255 0
-0.156286 -0.297991 -0.220032 0 255 0
-0.030952 -0.057564 -0.486823 0 255 0
-0.073027 -0.012709 -0.473525 0 255 0
0.021124 0.153461 0.202340 0 255 0
-0.138321 -0.159562 -0.083975 0 255 0
0.192995 -0.099518 0.432816 0 255 0
-0.179967 -0.116167 0.499800 0 255 0
-0.006865 -0.157316 -0.095994 0 255 0
0.135770 0.136225 0.374569 0 255 0
0.343864 -0.442284 0.315752 0 255 0
-0.408314 -0.457352 -0.384226 0 255 0
-0.083785 -0.153410 0.284781 0 255 0
-0.121858 -0.095180 -0.400193 0 255 0
0.090867 -0.158246 -0.122257 0 255 0
0.153658 0.087491 -0.066450 0 255 0
-0.056650 -0.161566 0.019089 0 255 0
-0.050443 -0.160800 -0.250985 0 255 0
0.145808 0.119960 0.077484 0 255 0
-0.310999 0.461090 0.119976 0 255 0
0.203320 -0.006997 0.334472 0 255 0
-0.384076 -0.423486 -0.072163 0 255 0
0.199663 -0.087974 0.188115 0 255 0
-0.094425 -0.145949 -0.274107 0 255 0
-0.085922 -0.153520 0.266312 0 255 0
-0.077740 -0.074465 0.495693 0 255 0
0.171522 0.054227 0.356322 0 255 0
0.034723 -0.160851 0.043735 0 255 0
0.100527 -0.092936 -0.340283 0 255 0
0.017828 0.157632 0.036332 0 255 0
0.097184 -0.136966 -0.285014 0 255 0
0.021248 -0.162210 -0.211478 0 255 0
-0.344103 -0.057596 -0.447557 0 255 0
-0.191289 0.256906 -0.372738 0 255 0
-0.059597 0.028705 -0.291730 0 255 0
-0.013817 -0.162967 -0.037262 0 255 0
0.124762 0.100189 0.405992 0 255 0
-0.201489 -0.030895 0.231477 0 255 0
0.458934 -0.271720 -0.304173 0 255 0
0.143795 0.188883 0.284115 0 255 0
-0.153487 -0.402479 -0.446057 0 255 0
-0.097609 -0.152900 -0.275701 0 255 0
-0.186296 -0.018245 -0.372901 0 255 0
-0.192615 -0.004237 0.153427 0 255 0
-0.169712 -0.051331 -0.381176 0 255 0
0.034039 -0.161200 0.217228 0 255 0
-0.144834 -0.159442 -0.080669 0 255 0
-0.062936 0.020253 -0.359039 0 255 0
0.116932 0.164077 0.190753 0 255 0
0.101649 0.145958 0.257023 0 255 0
0.098242 0.118698 -0.091662 0 255 0
-0.031461 -0.015682 -0.479245 0 255 0
-0.138956 0.115754 0.387371 0 255 0
-0.048781 0.144068 0.410067 0 255 0
0.419931 -0.240580 0.040385 0 255 0
0.013653 -0.148884 0.349012 0 255 0
-0.109069 0.144939 0.266400 0 255 0
0.038491 -0.163697 0.216987 0 255 0
0.025753 -0.017616 0.479082 0 255 0
-0.094997 -0.063155 -0.478832 0 255 0
-0.199839 -0.054774 0.183456 0 255 0
0.191631 -0.098444 -0.000534 0 255 0
0.018544 -0.193382 0.180975 0 255 0
-0.165758 -0.087255 -0.398225 0 255 0
-0.101214 0.109807 -0.100712 0 255 0
-0.190622 -0.049774 0.033742 0 255 0
-0.018903 0.093936 -0.139134 0 255 0
-0.185323 -0.121667 0.375908 0 255 0
0.168625 0.054319 0.003912 0 255 0
-0.049186 -0.154805 0.236826 0 255 0
0.190189 -0.044484 0.023386 0 255 0
-0.113626 0.084572 -0.321343 0 255 0
-0.010972 0.042435 -0.204361 0 255 0
-0.143389 0.123428 -0.043642 0 255 0
-0.173942 0.055333 0.341679 0 255 0
0.202407 -0.029167 -0.190760 0 255 0
0.032217 -0.159154 -0.400359 0 255 0
0.131288 -0.164516 -0.205729 0 255 0
-0.096761 -0.143424 -0.485556 0 255 0
-0.140482 0.124710 0.112462 0 255 0
0.029028 -0.157560 0.142188 0 255 0
0.117477 -0.160169 0.054252 0 255 0
-0.108406 0.001382 -0.429417 0 255 0
-0.066545 -0.011104 -0.447546 0 255 0
-0.029444 -0.159692 0.032579 0 255 0
0.108945 0.024482 -0.321146 0 255 0
0.275388 0.126595 0.465444 0 255 0
0.190614 0.001476 -0.244184 0 255 0
-0.135436 0.136668 0.066035 0 255 0
-0.065991 0.146202 -0.016341 0 255 0
0.198133 -0.008300 -0.058537 0 255 0
0.105928 0.159641 -0.158512 0 255 0
0.166357 -0.033111 0.449365 0 255 0
-0.192373 -0.041598 -0.151852 0 255 0
0.058102 -0.160138 -0.193527 0 255 0
-0.076241 0.148910 0.047243 0 255 0
0.203405 -0.055204 -0.132951 0 255 0
-0.114499 0.152682 0.284765 0 255 0
-0.181386 -0.053866 -0.380208 0 255 0
0.069896 0.028628 0.467803 0 255 0
0.058986 -0.160651 -0.377136 0 255 0
-0.134006 -0.113787 -0.232355 0 255 0
-0.048586 0.125131 0.414652 0 255 0
0.059848 0.148733 0.205083 0 255 0
-0.110325 0.155638 0.114030 0 255 0
-0.142212 0.028175 -0.264682 0 255 0
-0.166327 0.336283 0.362341 0 255 0
0.191629 0.000717 -0.236413 0 255 0
0.189302 -0.126826 -0.184486 0 255 0
0.206026 -0.035832 0.334984 0 255 0
0.031530 -0.149605 0.398455 0 255 0
-0.024248 -0.162631 -0.304054 0 255 0
0.124275 0.149972 0.139810 0 255 0
-0.270198 0.015659 -0.211251 0 255 0
-0.168034 0.046283 -0.128076 0 255 0
-0.088601 -0.169493 -0.097443 0 255 0
0.468845 0.091721 0.409131 0 255 0
-0.170239 -0.124426 -0.451436 0 255 0
-0.120955 -0.038331 -0.460770 0 255 0
-0.141872 0.120688 0.146393 0 255 0
0.007248 0.119177 0.424477 0 255 0
0.210218 -0.066627 0.218636 0 255 0
0.227197 0.303224 -0.372062 0 255 0
0.108359 -0.160008 -0.439645 0 255 0
0.021818 -0.163182 -0.369218 0 255 0
-0.389585 -0.025845 0.181954 0 255 0
0.186154 -0.121427 -0.077883 0 255 0
0.091408 0.374619 -0.389765 0 255 0
0.190786 -0.119548 -0.441347 0 255 0
-0.011933 -0.151773 0.307071 0 255 0
0.427206 -0.304837 0.355159 0 255 0
-0.199170 0.007007 0.059584 0 255 0
0.072465 0.141802 -0.014116 0 255 0
-0.026201 0.194038 0.013304 0 255 0
-0.176499 -0.161074 0.025416 0 255 0
0.042552 -0.159952 0.272919 0 255 0
0.073690 -0.163656 -0.023944 0 255 0
0.096414 -0.056495 0.349290 0 255 0
0.095717 -0.122317 0.355807 0 255 0
-0.192538 -0.000786 -0.102596 0 255 0
-0.049532 -0.160067 -0.403865 0 255 0
0.158433 0.081004 0.039617 0 255 0
0.186339 -0.124273 -0.171916 0 255 0
0.014377 0.155217 0.360619 0 255 0
0.312033 -0.236934 0.409258 0 255 0
0.016029 -0.160381 -0.159212 0 255 0
0.179027 -0.145460 -0.445634 0 255 0
-0.452788 0.067382 0.346768 0 255 0
-0.165122 0.065175 0.129500 0 255 0
-0.065431 0.173457 0.034824 0 255 0
0.195330 -0.015034 -0.033124 0 255 0
-0.173935 0.058299 0.385037 0 255 0
-0.103485 0.132060 -0.068960 0 255 0
0.226607 -0.220343 0.445878 0 255 0
-0.024611 -0.161658 -0.155624 0 255 0
-0.178433 -0.071139 0.456465 0 255 0
0.143823 0.010942 0.456116 0 255 0
-0.025893 0.143431 -0.036122 0 255 0
-0.163681 -0.045086 -0.444161 0 255 0
0.278049 -0.397250 -0.457142 0 255 0
-0.045539 -0.109565 0.494567 0 255 0
-0.108704 0.060695 -0.164969 0 255 0
-0.054481 -0.159587 -0.372738 0 255 0
0.183125 -0.155458 -0.020365 0 255 0
-0.012898 -0.156594 0.222657 0 255 0
0.199740 -0.005061 0.059258 0 255 0
-0.072644 0.029860 -0.313964 0 255 0
-0.047900 -0.027994 -0.464965 0 255 0
0.301388 0.335853 0.235902 0 255 0
0.181149 -0.012508 -0.370857 0 255 0
-0.236991 0.220497 0.431106 0 255 0
-0.141300 -0.461686 -0.280369 0 255 0
0.174468 0.042324 0.241205 0 255 0
0.116943 0.141588 0.371734 0 255 0
-0.156270 0.095658 0.051218 0 255 0
-0.171134 -0.004604 0.434481 0 255 0
0.130441 -0.028189 -0.448827 0 255 0
0.387673 0.249078 -0.140712 0 255 0
0.064453 0.007239 -0.420781 0 255 0
-0.011943 0.076911 0.457269 0 255 0
0.202211 -0.087861 -0.245359 0 255 0
0.187541 0.017803 0.406626 0 255 0
0.347728 0.064263 0.178434 0 255 0
-0.182056 0.047669 -0.138075 0 255 0
0.095517 0.149791 0.232233 0 255 0
-0.154983 0.106231 0.076534 0 255 0
-0.194104 0.015344 0.332600 0 255 0
-0.190978 -0.014164 0.406032 0 255 0
-0.095141 -0.066869 -0.329675 0 255 0
-0.019409 0.359588 0.191157 0 255 0
0.483905 0.196529 0.018060 0 255 0
-0.143706 -0.082060 -0.401957 0 255 0
-0.115192 0.150406 0.230823 0 255 0
0.124396 0.124201 -0.071743 0 255 0
0.025911 0.028887 -0.302776 0 255 0
0.177110 -0.137226 -0.444936 0 255 0
0.072808 -0.403974 -0.264645 0 255 0
-0.036969 0.078155 -0.158954 0 255 0
-0.082126 -0.164108 -0.194715 0 255 0
-0.045323 -0.154637 0.240986 0 255 0
0.157304 0.083446 -0.001907 0 255 0
0.193494 -0.028749 0.174247 0 255 0
0.308725 -0.355430 -0.150186 0 255 0
-0.458452 -0.230558 -0.026354 0 255 0
-0.068250 0.113296 -0.104163 0 255 0
0.090411 0.346521 0.138932 0 255 0
0.127146 -0.077915 0.483440 0 255 0
-0.023281 0.062718 -0.183688 0 255 0
0.355782 -0.153174 -0.061650 0 255 0
-0.007953 0.030387 -0.297536 0 255 0
0.192357 -0.062409 -0.174266 0 255 0
-0.292833 -0.071396 -0.304189 0 255 0
-0.065794 0.080723 -0.152797 0 255 0
0.398460 -0.380765 -0.428047 0 255 0
0.189184 -0.113830 0.410903 0 255 0
-0.116569 -0.161082 -0.171804 0 255 0
0.266193 0.492926 -0.402029 0 255 0
-0.074892 -0.158340 0.017726 0 255 0
0.323444 -0.082728 -0.435276 0 255 0
-0.050015 0.039215 -0.258157 0 255 0
-0.176448 0.057357 0.181360 0 255 0
0.096495 -0.120257 -0.360014 0 255 0
-0.101942 -0.133367 -0.242398 0 255 0
0.199005 -0.074553 0.198529 0 255 0
0.187917 -0.008000 -0.325066 0 255 0
0.022530 -0.160750 -0.280405 0 255 0
-0.160899 0.043200 -0.176401 0 255 0
0.117119 0.035231 -0.204140 0 255 0
-0.193578 -0.107453 0.178383 0 255 0
-0.128816 -0.051190 -0.276493 0 255 0
-0.240601 -0.029077 -0.293010 0 255 0
0.367520 0.372190 0.088970 0 255 0
0.150376 -0.002567 -0.399847 0 255 0
0.325712 -0.387375 0.017477 0 255 0
-0.054532 -0.160955 0.201970 0 255 0
0.196315 -0.051918 0.420403 0 255 0
0.001298 -0.157332 0.158699 0 255 0
0.199561 -0.008347 0.383386 0 255 0
0.156632 -0.075867 0.218993 0 255 0
0.051245 -0.161894 -0.137886 0 255 0
0.065393 0.130462 -0.075782 0 255 0
-0.006684 -0.044765 -0.497158 0 255 0
-0.263442 -0.411717 0.288744 0 255 0
0.123387 0.073313 0.436698 0 255 0
0.132595 0.480203 0.016611 0 255 0
0.170076 -0.100184 -0.456703 0 255 0
-0.195118 -0.026646 -0.061725 0 255 0
-0.009217 -0.160296 -0.239342 0 255 0
0.157218 0.079749 0.013353 0 255 0
-0.079545 0.144042 -0.042125 0 255 0
-0.083069 -0.171261 -0.270073 0 255 0
-0.030383 -0.045849 -0.490716 0 255 0
0.179669 0.032574 -0.073931 0 255 0
-0.290121 -0.128848 -0.093614 0 255 0
-0.324484 0.165134 0.293527 0 255 0
0.020865 0.026589 -0.348307 0 255 0
-0.487045 0.220980 0.069371 0 255 0
0.152613 0.279844 0.459441 0 255 0
-0.113322 0.134122 -0.046986 0 255 0
-0.049068 -0.058478 0.505626 0 255 0
-0.083486 -0.157337 0.161653 0 255 0
-0.080002 0.020485 -0.378062 0 255 0
-0.056290 -0.159523 -0.112406 0 255 0
0.201917 -0.055939 0.440664 0 255 0
-0.450949 -0.002868 0.259872 0 255 0
-0.097120 -0.094364 0.222774 0 255 0
-0.042736 0.057178 -0.295279 0 255 0
-0.192876 -0.102741 -0.210211 0 255 0
0.121484 0.026717 -0.302319 0 255 0
-0.265571 0.006189 -0.362789 0 255 0
-0.146714 -0.027443 -0.441183 0 255 0
0.049289 -0.031926 -0.483721 0 255 0
-0.052415 -0.160639 -0.236128 0 255 0
0.105435 -0.052958 0.470622 0 255 0
-0.292919 -0.007221 0.480609 0 255 0
-0.193443 -0.068879 -0.008586 0 255 0
-0.189322 0.016529 0.362504 0 255 0
-0.123297 0.013852 -0.344858 0 255 0
-0.181517 -0.132854 -0.202225 0 255 0
-0.168563 -0.161902 0.191257 0 255 0
-0.173114 -0.141582 -0.453645 0 255 0
-0.107404 -0.154439 -0.438879 0 255 0
0.178157 0.048021 -0.011995 0 255 0
-0.165317 -0.165063 0.129567 0 255 0
0.411887 -0.400117 0.477687 0 255 0
-0.189251 -0.043731 -0.413399 0 255 0
0.258898 -0.239276 0.215244 0 255 0
0.099077 -0.029398 0.473238 0 255 0
-0.067407 -0.158492 0.188538 0 255 0
0.344848 0.045489 -0.435755 0 255 0
-0.410142 0.283175 -0.311073 0 255 0
-0.187228 -0.121458 0.055932 0 255 0
0.008147 -0.159565 -0.322877 0 255 0
0.169171 0.036734 0.426475 0 255 0
-0.206540 -0.005381 0.299103 0 255 0
-0.077486 0.283646 -0.036197 0 255 0
0.162298 0.065202 0.357740 0 255 0
-0.124403 -0.157992 0.115795 0 255 0
-0.070598 0.035609 -0.246255 0 255 0
-0.015474 -0.080904 0.506282 0 255 0
0.032651 -0.149882 0.302728 0 255 0
-0.142157 0.113000 -0.081363 0 255 0
-0.027874 -0.044352 -0.488142 0 255 0
0.195122 0.012909 0.329082 0 255 0
0.071636 -0.157940 0.130246 0 255 0
0.126311 -0.157946 0.058942 0 255 0
0.135996 0.124652 0.372615 0 255 0
0.171138 0.072192 -0.045838 0 255 0
0.081409 -0.156082 0.329702 0 255 0
-0.093518 -0.097060 0.445110 0 255 0
0.144054 -0.157961 -0.421338 0 255 0
0.097567 -0.098544 0.355757 0 255 0
0.177559 -0.158754 0.061937 0 255 0
0.007540 -0.158937 0.140475 0 255 0
-0.210562 0.088734 -0.192252 0 255 0
0.000098 -0.152811 -0.455328 0 255 0
-0.035254 0.141946 0.406500 0 255 0
-0.169037 0.062558 0.356252 0 255 0
0.076489 -0.057372 -0.474148 0 255 0
0.149345 0.108433 0.353944 0 255 0
-0.134573 -0.158796 0.006826 0 255 0
0.025970 -0.165551 -0.082802 0 255 0
0.139633 0.119250 0.118550 0 255 0
0.189182 -0.160174 -0.202959 0 255 0
0.086034 -0.161508 0.233862 0 255 0
-0.048777 -0.159247 0.142040 0 255 0
0.299379 -0.181665 -0.359254 0 255 0
-0.063321 -0.211864 -0.322764 0 255 0
0.176271 0.038930 0.425465 0 255 0
-0.060632 -0.119369 0.486707 0 255 0
-0.093619 -0.142606 -0.328463 0 255 0
-0.146212 -0.114821 -0.232610 0 255 0
0.441731 -0.382878 0.091064 0 255 0
0.054629 0.155227 0.119029 0 255 0
0.440496 0.378952 -0.202317 0 255 0
0.129469 -0.160128 -0.062144 0 255 0
-0.177975 -0.069089 -0.384315 0 255 0
-0.146438 0.100592 0.232961 0 255 0
-0.102567 -0.054705 -0.381247 0 255 0
0.188042 0.402136 -0.342297 0 255 0
0.332503 0.354531 0.163055 0 255 0
0.127977 -0.161957 -0.020897 0 255 0
0.069712 -0.149958 0.312339 0 255 0
-0.153570 0.084418 0.240633 0 255 0
0.081346 -0.162738 -0.136688 0 255 0
-0.146550 -0.157617 -0.195335 0 255 0
0.061848 -0.160824 0.123330 0 255 0
0.195029 -0.079069 0.165963 0 255 0
-0.129788 0.048308 -0.177816 0 255 0
0.147753 0.093710 -0.114825 0 255 0
-0.075224 0.011515 -0.441599 0 255 0
-0.175784 -0.154110 0.195620 0 255 0
-0.153953 0.089664 0.225719 0 255 0
-0.109287 0.012448 -0.360295 0 255 0
0.096335 -0.144612 0.232909 0 255 0
0.073674 -0.082817 -0.489624 0 255 0
-0.120080 0.059268 0.439271 0 255 0
-0.129992 -0.100766 0.480665 0 255 0
-0.165770 0.011025 -0.273322 0 255 0
-0.191567 0.014358 0.295102 0 255 0
0.217500 -0.183154 -0.091923 0 255 0
0.135824 -0.157746 0.067691 0 255 0
0.143246 0.122694 0.131301 0 255 0
-0.127595 0.140510 0.310932 0 255 0
0.429524 0.263012 -0.307361 0 255 0
0.204627 -0.088556 0.173816 0 255 0
0.468229 0.135241 -0.091991 0 255 0
0.101266 -0.159141 0.105960 0 255 0
0.053366 0.155158 0.137386 0 255 0
0.183033 0.037532 0.415923 0 255 0
-0.100458 -0.126602 -0.486611 0 255 0
0.014362 -0.148557 0.337610 0 255 0
0.055816 -0.033516 -0.461386 0 255 0
-0.013361 -0.111636 -0.481132 0 255 0
-0.198626 -0.019127 0.355186 0 255 0
-0.118652 -0.070375 0.219332 0 255 0
0.282288 0.017287 0.030755 0 255 0
0.180498 0.032483 0.284769 0 255 0
-0.041819 -0.131921 0.443937 0 255 0
-0.274788 -0.351230 -0.106515 0 255 0
-0.073910 -0.000935 -0.470350 0 255 0
0.406753 -0.272452 0.096395 0 255 0
-0.183563 -0.128549 0.038494 0 255 0
-0.085102 -0.157745 0.171441 0 255 0
0.072477 -0.080587 -0.491315 0 255 0
0.002755 0.104342 -0.123499 0 255 0
0.160764 0.062333 -0.082903 0 255 0
0.025993 0.152141 0.164417 0 255 0
-0.377345 -0.446163 -0.233000 0 255 0
0.081623 0.046863 -0.190003 0 255 0
0.034115 -0.089249 0.498716 0 255 0
-0.068306 -0.157443 -0.023984 0 255 0
-0.038286 0.025074 -0.339161 0 255 0
-0.173861 -0.046296 -0.298842 0 255 0
-0.383700 0.411041 0.066357 0 255 0
-0.186188 0.006736 -0.221559 0 255 0
-0.181614 -0.079769 0.366565 0 255 0
0.226471 0.075541 0.149132 0 255 0
-0.147670 0.106096 -0.027606 0 255 0
-0.175989 -0.066693 0.352968 0 255 0
0.130050 0.095182 0.406955 0 255 0
0.484045 -0.263421 0.308023 0 255 0
-0.196695 -0.093562 -0.164783 0 255 0
-0.110998 -0.307256 -0.456100 0 255 0
0.125153 0.113080 -0.097493 0 255 0
0.205221 -0.087212 0.183585 0 255 0
-0.105551 0.144913 0.048264 0 255 0
-0.018877 0.160184 0.260289 0 255 0
-0.012186 -0.158242 -0.284199 0 255 0
0.177266 0.049239 0.324542 0 255 0
-0.159162 0.081008 0.093502 0 255 0
0.145166 0.106538 0.023236 0 255 0
-0.195677 -0.028244 -0.028874 0 255 0
0.022525 0.153610 0.237361 0 255 0
0.038786 -0.141352 0.419126 0 255 0
-0.200661 -0.028808 0.251005 0 255 0
-0.134680 0.133608 -0.021208 0 255 0
0.005306 -0.163942 0.027244 0 255 0
0.185903 -0.014259 -0.377807 0 255 0
0.006139 -0.158471 -0.384477 0 255 0
-0.080277 0.146467 0.043343 0 255 0
0.114561 -0.110312 -0.410851 0 255 0
0.430562 -0.225560 0.287255 0 255 0
0.027672 -0.157951 -0.326310 0 255 0
0.122467 -0.158067 0.067779 0 255 0
0.058407 -0.158676 -0.300162 0 255 0
0.079678 -0.161821 -0.108843 0 255 0
-0.195729 -0.080032 0.361785 0 255 0
0.071630 -0.159397 -0.073400 0 255 0
0.146218 0.000511 -0.399493 0 255 0
0.101902 -0.073502 -0.252126 0 255 0
0.043060 -0.121749 -0.482344 0 255 0
0.019149 0.126284 -0.089263 0 255 0
0.050657 -0.140917 0.407059 0 255 0
0.169329 -0.265319 0.291038 0 255 0
0.050606 0.028775 -0.304796 0 255 0
0.141939 0.144719 0.118935 0 255 0
0.047912 -0.134720 -0.504494 0 255 0
0.174066 0.038365 -0.000919 0 255 0
0.171597 -0.098663 -0.404368 0 255 0
0.189225 -0.132632 -0.221727 0 255 0
0.127242 -0.112948 0.480233 0 255 0
-0.094739 -0.132684 0.341067 0 255 0
0.170010 0.053907 -0.036914 0 255 0
0.072974 -0.147092 0.341111 0 255 0
0.093763 -0.026421 -0.459779 0 255 0
0.315793 -0.453032 0.273614 0 255 0
-0.052051 0.147167 0.359867 0 255 0
0.195150 -0.054190 0.175460 0 255 0
0.181970 -0.161689 0.185252 0 255 0
0.199645 -0.046663 -0.100427 0 255 0
-0.029728 -0.142995 -0.487491 0 255 0
-0.063492 -0.161815 -0.354079 0 255 0
-0.153872 -0.120652 0.286996 0 255 0
0.151776 0.135563 0.277326 0 255 0
0.188243 0.005883 -0.221500 0 255 0
-0.146029 -0.136124 0.378718 0 255 0
-0.108591 -0.159765 0.010120 0 255 0
0.076145 -0.169005 -0.106585 0 255 0
0.193302 0.006288 0.305139 0 255 0
0.012859 0.020983 0.481747 0 255 0
-0.126544 -0.104418 0.477332 0 255 0
-0.029849 0.152919 0.314631 0 255 0
-0.187613 -0.017701 -0.365542 0 255 0
-0.104996 0.148162 0.101104 0 255 0
0.109186 0.154327 0.093849 0 255 0
-0.079113 0.052845 0.452740 0 255 0
-0.337092 0.440302 0.397949 0 255 0
-0.188172 -0.109456 -0.201646 0 255 0
-0.175061 0.019234 -0.212536 0 255 0
-0.107970 0.161737 0.106800 0 255 0
-0.016431 -0.154091 -0.450501 0 255 0
0.114288 -0.041744 0.468600 0 255 0
-0.148966 -0.027109 -0.436154 0 255 0
-0.055596 -0.158786 -0.318266 0 255 0
-0.184678 0.003322 -0.239704 0 255 0
-0.035597 -0.159313 0.031990 0 255 0
0.178845 -0.025852 -0.432619 0 255 0
0.170798 -0.159222 0.078005 0 255 0
-0.184629 -0.126281 -0.158551 0 255 0
-0.131800 0.032798 -0.287862 0 255 0
0.004953 -0.007640 -0.475528 0 255 0
0.205907 0.258926 0.308559 0 255 0
-0.021359 -0.152965 0.263966 0 255 0
0.027352 0.014660 -0.424849 0 255 0
0.051507 0.119687 -0.094847 0 255 0
-0.017549 -0.134525 0.430453 0 255 0
0.164121 0.029348 -0.185803 0 255 0
0.169365 0.058244 -0.023688 0 255 0
-0.088603 -0.120465 -0.489992 0 255 0
0.108931 0.018871 -0.343847 0 255 0
-0.179230 -0.158501 0.177135 0 255 0
-0.125598 0.022323 -0.304769 0 255 0
0.120686 0.035936 -0.216450 0 255 0
-0.047738 0.150877 0.036671 0 255 0
-0.453714 -0.250743 -0.123889 0 255 0
-0.196902 -0.021704 0.371146 0 255 0
-0.195590 -0.007891 0.031063 0 255 0
-0.080487 -0.148412 0.327423 0 255 0
-0.185386 -0.148153 0.096988 0 255 0
-0.071482 -0.138302 0.427852 0 255 0
-0.190840 -0.137614 -0.049503 0 255 0
-0.183477 -0.092948 0.452878 0 255 0
-0.202791 -0.035449 0.216391 0 255 0
-0.193416 -0.035569 0.174683 0 255 0
-0.065797 -0.143518 0.402567 0 255 0
0.439495 -0.090726 0.226131 0 255 0
0.133749 -0.054168 -0.358270 0 255 0
0.079369 0.006639 0.479472 0 255 0
-0.082653 -0.159185 0.087120 0 255 0
-0.275718 -0.087775 -0.160265 0 255 0
-0.088604 -0.165865 -0.072267 0 255 0
0.004125 0.016911 0.478855 0 255 0
0.192799 -0.095744 0.372516 0 255 0
-0.161869 -0.157411 0.195157 0 255 0
-0.169741 0.062707 -0.045186 0 255 0
0.093596 0.008965 0.465476 0 255 0
0.130413 0.081862 0.415788 0 255 0
0.183964 -0.118187 0.104310 0 255 0
0.086548 0.150748 0.281058 0 255 0
-0.187308 0.018666 -0.010023 0 255 0
0.000715 -0.136935 -0.498030 0 255 0
-0.046752 -0.189797 0.456684 0 255 0
0.194907 -0.054563 -0.097936 0 255 0
-0.176452 -0.167922 0.195833 0 255 0
0.151821 0.095403 0.111862 0 255 0
0.189535 0.040075 0.149924 0 255 0
-0.053983 -0.159527 -0.424764 0 255 0
-0.176555 -0.127448 -0.450359 0 255 0
0.251647 0.045348 -0.335066 0 255 0
0.115336 -0.164387 -0.199203 0 255 0
-0.196894 -0.003097 0.337509 0 255 0
0.139985 -0.174704 0.293083 0 255 0
0.421517 -0.346472 -0.262190 0 255 0
0.143388 -0.159134 -0.044346 0 255 0
-0.185238 -0.105797 -0.235248 0 255 0
0.132837 -0.157475 -0.116337 0 255 0
0.168514 0.050450 0.410566 0 255 0
-0.015728 0.080387 0.456628 0 255 0
-0.204612 -0.035415 -0.277732 0 255 0
-0.042749 -0.047826 -0.487960 0 255 0
-0.004904 0.202634 -0.282719 0 255 0
-0.215272 0.362514 0.232288 0 255 0
-0.176699 -0.135995 -0.415173 0 255 0
-0.382627 0.083451 -0.021587 0 255 0
0.160604 0.090200 0.071811 0 255 0
-0.036352 -0.023253 0.476661 0 255 0
0.050467 0.017776 0.473802 0 255 0
0.372221 -0.109919 -0.391125 0 255 0
-0.183407 -0.117183 0.040983 0 255 0
-0.026527 -0.025436 -0.464857 0 255 0
-0.180530 -0.147069 -0.095030 0 255 0
0.132354 0.043173 -0.180047 0 255 0
-0.033221 0.039191 -0.243418 0 255 0
-0.044074 -0.159260 -0.250415 0 255 0
-0.010742 -0.183640 0.304214 0 255 0
0.088745 -0.003529 -0.453780 0 255 0
0.072092 0.152162 0.251553 0 255 0
0.144151 -0.031276 0.463660 0 255 0
0.003329 -0.162391 0.040419 0 255 0
0.106471 -0.125216 -0.362013 0 255 0
0.378518 -0.048847 0.099824 0 255 0
0.006115 -0.135481 0.438165 0 255 0
0.134036 -0.162278 -0.108076 0 255 0
0.190698 -0.116931 0.184829 0 255 0
-0.158413 0.093843 -0.018650 0 255 0
0.188729 -0.098921 0.112514 0 255 0
-0.131528 -0.160984 0.094883 0 255 0
0.119825 -0.157586 0.042176 0 255 0
-0.163045 -0.049495 -0.450321 0 255 0
-0.053426 -0.090186 -0.494537 0 255 0
-0.169458 -0.159365 -0.168174 0 255 0
-0.003032 0.027683 -0.380625 0 255 0
0.378098 0.491231 -0.361643 0 255 0
0.202532 -0.025799 0.327324 0 255 0
0.205215 -0.043525 -0.267419 0 255 0
-0.162877 0.030047 -0.209319 0 255 0
0.143193 0.238678 -0.233366 0 255 0
-0.197787 -0.069647 0.429001 0 255 0
-0.164333 -0.052229 -0.453484 0 255 0
0.342831 -0.257612 -0.195680 0 255 0
0.149776 0.122988 0.082153 0 255 0
-0.207824 0.210394 -0.370679 0 255 0
0.097847 -0.111831 -0.312831 0 255 0
-0.191446 -0.122925 0.158125 0 255 0
-0.077065 0.140175 -0.033014 0 255 0
0.023499 -0.149128 0.314834 0 255 0
-0.147043 0.110646 0.013945 0 255 0
-0.159475 0.073924 0.185595 0 255 0
0.270653 0.234833 -0.439981 0 255 0
0.065165 0.149478 0.174888 0 255 0
0.149159 -0.157672 0.112468 0 255 0
-0.090338 -0.158761 -0.076933 0 255 0
-0.427118 -0.243468 -0.442560 0 255 0
-0.129479 0.012382 -0.352940 0 255 0
-0.060880 0.074693 -0.155977 0 255 0
0.180968 0.033920 0.380358 0 255 0
0.175885 0.335719 0.413730 0 255 0
-0.114881 0.078312 -0.141653 0 255 0
0.060286 0.144061 0.391332 0 255 0
0.119951 -0.161300 -0.117436 0 255 0
0.019650 -0.164907 -0.312148 0 255 0
0.202898 -0.014234 0.332734 0 255 0
-0.179250 -0.134907 0.431986 0 255 0
-0.198427 -0.074623 -0.236063 0 255 0
0.020292 -0.103880 -0.482207 0 255 0
0.001057 0.024109 -0.385226 0 255 0
0.168707 -0.158133 0.123956 0 255 0
0.041771 -0.149977 -0.460704 0 255 0
-0.139696 0.269470 -0.425932 0 255 0
-0.197801 -0.048920 -0.412047 0 255 0
-0.166126 0.079731 -0.027658 0 255 0
0.205533 -0.012934 0.360183 0 255 0
0.187512 0.023950 0.412781 0 255 0
-0.128097 0.103615 -0.111416 0 255 0
0.052068 -0.161337 -0.166868 0 255 0
-0.191324 0.090460 -0.195217 0 255 0
-0.201188 -0.010227 0.366308 0 255 0
0.141742 -0.059391 0.480921 0 255 0
0.179640 0.031261 -0.038066 0 255 0
-0.121342 0.006753 0.462615 0 255 0
0.167241 -0.161356 0.174251 0 255 0
0.098356 -0.157953 0.094695 0 255 0
0.100980 -0.083031 0.243153 0 255 0
-0.184111 -0.156768 -0.415069 0 255 0
0.185949 -0.152687 0.071214 0 255 0
-0.140253 0.134012 0.323151 0 255 0
0.026760 0.135400 0.425496 0 255 0
0.060550 0.293197 -0.188723 0 255 0
-0.148793 -0.138883 -0.415343 0 255 0
-0.186548 -0.132366 0.153112 0 255 0
-0.172293 -0.160632 0.026083 0 255 0
-0.021880 0.151922 0.323994 0 255 0
-0.032144 -0.160689 -0.297448 0 255 0
0.143721 0.114954 -0.075808 0 255 0
0.051722 -0.154600 -0.452853 0 255 0
-0.196522 -0.433132 0.170221 0 255 0
0.030874 0.142351 0.403665 0 255 0
0.077701 -0.163318 -0.170688 0 255 0
0.028528 -0.403179 -0.148155 0 255 0
-0.048297 0.019630 -0.361690 0 255 0
-0.098897 -0.150049 -0.384068 0 255 0
-0.195314 0.008088 0.377557 0 255 0
0.038287 -0.055407 0.494304 0 255 0
0.144721 -0.158492 -0.126840 0 255 0
-0.035044 0.145213 -0.010428 0 255 0
0.016396 -0.160654 -0.129793 0 255 0
-0.043755 0.024533 -0.360701 0 255 0
-0.021843 -0.018164 -0.473400 0 255 0
0.054709 -0.157687 0.243472 0 255 0
0.166429 0.064751 0.131014 0 255 0
-0.052452 0.155811 0.126915 0 255 0
0.068079 -0.156783 0.313626 0 255 0
0.068186 -0.184245 -0.216947 0 255 0
0.171716 -0.078741 -0.400479 0 255 0
0.098792 -0.065659 0.307092 0 255 0
0.110926 -0.148806 0.395946 0 255 0
-0.097539 -0.157084 -0.310785 0 255 0
0.066769 -0.003419 0.463929 0 255 0
0.096301 -0.093251 -0.263172 0 255 0
0.058386 -0.165467 0.156290 0 255 0
0.143759 0.110501 0.184967 0 255 0
0.162080 0.085760 -0.118872 0 255 0
0.191804 -0.082549 0.039615 0 255 0
-0.190122 -0.016359 0.118982 0 255 0
0.080602 -0.159272 -0.143764 0 255 0
-0.167113 -0.153784 0.199057 0 255 0
-0.092949 -0.072966 -0.308670 0 255 0
0.168885 0.053043 0.283689 0 255 0
0.002760 -0.128865 0.456144 0 255 0
-0.155442 0.045242 0.432226 0 255 0
-0.014141 -0.164031 -0.344634 0 255 0
0.195892 -0.115896 0.165130 0 255 0
0.206949 -0.048437 -0.287316 0 255 0
-0.025306 0.149891 -0.075671 0 255 0
0.194543 -0.092431 -0.088482 0 255 0
-0.033574 -0.143073 -0.482834 0 255 0
0.149505 -0.057126 -0.378479 0 255 0
-0.124216 0.138913 -0.040085 0 255 0
-0.031575 0.151300 0.053038 0 255 0
-0.206150 0.041211 -0.128679 0 255 0
0.069772 -0.157587 0.195325 0 255 0
0.181359 -0.150681 0.019868 0 255 0
0.051579 0.032940 -0.213021 0 255 0
0.169053 -0.051084 -0.380741 0 255 0
-0.093547 -0.159948 0.095006 0 255 0
0.102975 -0.124833 0.355553 0 255 0
-0.075923 -0.158713 0.236743 0 255 0
-0.047591 0.007023 0.477954 0 255 0
-0.093791 -0.121765 -0.321767 0 255 0
-0.485079 0.159996 -0.122353 0 255 0
0.014182 -0.161765 0.043108 0 255 0
0.146894 0.005505 0.450827 0 255 0
-0.075068 0.148483 0.296470 0 255 0
-0.344728 0.414941 0.456469 0 255 0
-0.128144 -0.037221 -0.454537 0 255 0
0.010855 -0.068175 -0.497270 0 255 0
-0.055140 0.147549 0.036120 0 255 0
0.030094 -0.161981 0.200076 0 255 0
0.139014 0.015157 -0.322113 0 255 0
-0.452105 -0.252028 -0.061952 0 255 0
-0.131764 -0.225603 -0.388623 0 255 0
0.099401 -0.050814 0.268744 0 255 0
-0.182054 -0.098350 0.443520 0 255 0
-0.110867 -0.042694 -0.467537 0 255 0
0.198406 -0.020258 -0.220562 0 255 0
-0.184667 -0.118737 -0.104857 0 255 0
-0.187331 -0.102263 0.051305 0 255 0
-0.228716 0.298237 -0.075795 0 255 0
-0.188297 -0.105555 0.429042 0 255 0
-0.076777 -0.028699 -0.454035 0 255 0
0.107484 -0.157623 -0.087134 0 255 0
-0.204953 -0.069844 0.404919 0 255 0
0.188335 -0.093908 -0.198711 0 255 0
0.097782 -0.097684 -0.349294 0 255 0
0.094953 -0.155856 0.347447 0 255 0
0.115864 0.161861 0.175584 0 255 0
0.395380 -0.005330 -0.222921 0 255 0
0.152154 -0.013688 -0.426055 0 255 0
0.171854 0.036891 0.024830 0 255 0
0.414480 0.061585 0.247652 0 255 0
0.043918 -0.163687 -0.372264 0 255 0
0.092945 -0.086906 0.269580 0 255 0
-0.159400 -0.039927 -0.352517 0 255 0
-0.128084 -0.053230 0.342572 0 255 0
-0.183532 -0.050236 -0.289740 0 255 0
0.189020 -0.151351 -0.216395 0 255 0
-0.042287 -0.159713 -0.000477 0 255 0
-0.058366 0.153762 0.381404 0 255 0
0.155504 0.008761 -0.317094 0 255 0
-0.156493 0.077689 -0.026522 0 255 0
-0.113981 0.136484 0.402087 0 255 0
0.134143 -0.157788 0.170633 0 255 0
0.045035 -0.005321 0.477128 0 255 0
-0.385604 0.230069 0.166118 0 255 0
0.043732 0.153527 0.061584 0 255 0
0.135031 0.124092 -0.085115 0 255 0
-0.128244 -0.160520 -0.175363 0 255 0
-0.151818 0.103173 0.069979 0 255 0
0.115981 -0.058640 -0.477377 0 255 0
-0.159234 0.070278 0.246383 0 255 0
0.158237 -0.163494 -0.049757 0 255 0
0.185149 0.030162 0.055519 0 255 0
-0.098667 -0.109649 -0.376058 0 255 0
-0.495769 0.334854 -0.240708 0 255 0
-0.154885 -0.109660 -0.240537 0 255 0
-0.148890 0.112734 0.243881 0 255 0
0.040685 0.121933 -0.100922 0 255 0
0.022476 0.019070 -0.362583 0 255 0
-0.184938 0.030076 0.373309 0 255 0
-0.111874 -0.165012 0.298272 0 255 0
-0.047239 0.150588 0.171665 0 255 0
0.271946 0.432870 -0.374802 0 255 0
-0.071239 -0.157782 -0.389839 0 255 0
0.157425 0.082768 0.179451 0 255 0
0.031573 -0.162560 0.017813 0 255 0
0.154071 0.096962 0.166783 0 255 0
-0.173869 0.047284 0.027889 0 255 0
-0.201275 -0.068388 0.178383 0 255 0
-0.142161 0.001067 -0.382914 0 255 0
0.122567 0.027864 -0.293805 0 255 0
-0.189515 0.026270 0.084642 0 255 0
0.137319 0.135501 0.073602 0 255 0
0.175655 0.047885 0.235248 0 255 0
0.095046 -0.076383 -0.390603 0 255 0
0.059665 0.147925 0.048611 0 255 0
0.050959 -0.153656 -0.448125 0 255 0
-0.317570 0.365689 0.349450 0 255 0
-0.040658 -0.041431 0.479088 0 255 0
-0.201247 -0.019572 -0.211308 0 255 0
0.136318 -0.054012 -0.460369 0 255 0
-0.021802 -0.159705 -0.149032 0 255 0
0.188424 -0.086398 0.371646 0 255 0
0.028744 -0.119382 0.489711 0 255 0
0.432327 0.033670 -0.077713 0 255 0
-0.115429 0.160367 0.094471 0 255 0
-0.101735 0.419356 0.205717 0 255 0
-0.174988 0.038124 -0.161189 0 255 0
-0.081924 0.097152 -0.436648 0 255 0
0.189129 0.032189 0.153055 0 255 0
0.205161 -0.022381 0.307085 0 255 0
-0.088987 0.144574 0.351999 0 255 0
-0.194990 -0.039672 -0.409084 0 255 0
0.200513 -0.059804 0.147754 0 255 0
0.192123 -0.088688 -0.180563 0 255 0
-0.085266 -0.159061 -0.045603 0 255 0
-0.129336 0.088037 -0.135307 0 255 0
0.284203 0.405815 0.236334 0 255 0
0.205127 -0.027796 -0.323998 0 255 0
0.313254 -0.019770 -0.226913 0 255 0
-0.103696 -0.157581 0.149249 0 255 0
-0.024808 -0.137474 0.436734 0 255 0
-0.190185 -0.054304 0.326480 0 255 0
0.141523 0.131687 0.065855 0 255 0
0.194494 -0.048874 0.310505 0 255 0
-0.095664 -0.116948 -0.311412 0 255 0
0.145678 -0.044188 0.330420 0 255 0
0.023337 0.143517 -0.458198 0 255 0
0.442024 0.434866 -0.400616 0 255 0
0.123794 0.144494 -0.002042 0 255 0
-0.138393 0.018784 -0.318309 0 255 0
-0.032653 -0.361075 -0.346911 0 255 0
0.117353 -0.044172 -0.366396 0 255 0
0.119695 -0.163502 -0.197363 0 255 0
0.017754 0.147579 -0.135982 0 255 0
0.374910 0.444975 0.265307 0 255 0
0.060678 0.142457 0.388590 0 255 0
-0.191882 -0.111040 -0.203807 0 255 0
0.494770 -0.310988 -0.311645 0 255 0
0.145233 0.133044 0.191092 0 255 0
0.032396 0.153013 0.041521 0 255 0
0.093702 -0.064022 -0.273928 0 255 0
-0.199598 -0.047761 -0.332555 0 255 0
0.148922 0.010083 0.448084 0 255 0
-0.182095 -0.159620 -0.030503 0 255 0
0.192141 -0.015583 0.432879 0 255 0
-0.093341 0.003581 -0.440084 0 255 0
0.001901 0.156784 0.114609 0 255 0
-0.179901 -0.116304 0.444781 0 255 0
0.182640 -0.092228 0.206732 0 255 0
0.002673 0.038434 -0.269941 0 255 0
-0.147037 0.108767 -0.020924 0 255 0
0.195541 -0.066096 0.160310 0 255 0
0.072650 0.157423 0.254646 0 255 0
0.477415 0.371859 -0.157135 0 255 0
-0.155058 0.085392 0.098975 0 255 0
-0.140087 -0.161775 0.020616 0 255 0
0.080187 -0.072648 0.490665 0 255 0
0.033551 -0.151587 0.355308 0 255 0
-0.104638 0.095585 0.419612 0 255 0
0.141238 -0.141617 0.398774 0 255 0
-0.035901 0.250991 -0.206846 0 255 0
0.087347 0.149137 0.049184 0 255 0
-0.028125 -0.116822 0.488261 0 255 0
0.145348 -0.092929 0.371916 0 255 0
0.319775 0.337996 0.336768 0 255 0
-0.101666 -0.168266 -0.302243 0 255 0
-0.181564 -0.128450 -0.078823 0 255 0
0.094137 -0.104661 -0.338143 0 255 0
-0.014018 -0.157788 -0.151014 0 255 0
-0.031847 0.419344 -0.260034 0 255 0
0.061744 0.074125 0.450876 0 255 0
-0.042518 -0.163329 -0.088833 0 255 0
0.127849 0.145376 0.201690 0 255 0
0.032686 -0.164433 0.201139 0 255 0
-0.284735 -0.119568 0.291994 0 255 0
-0.190712 -0.057715 0.439212 0 255 0
-0.093519 -0.120973 0.293393 0 255 0
-0.003441 0.318147 -0.251306 0 255 0
