ply
format ascii 1.0
element vertex 1308
property float x
property float y
property float z
property uchar red
property uchar green
property uchar blue
end_header
0.216878 -0.073534 -0.176538 255 0 0
0.125773 -0.064972 0.435934 255 0 0
0.137082 -0.126791 -0.150936 255 0 0
-0.237280 0.001457 0.335302 255 0 0
-0.125389 0.046086 0.386554 255 0 0
-0.140539 -0.091838 0.175542 255 0 0
0.186033 0.019762 -0.194647 255 0 0
0.204981 -0.038082 -0.381591 255 0 0
-0.053728 -0.060649 0.440707 255 0 0
0.181281 0.021433 -0.263280 255 0 0
0.056412 -0.080822 -0.428824 255 0 0
-0.225800 0.017198 0.338575 255 0 0
-0.004450 -0.080713 -0.474547 255 0 0
0.179582 0.052295 0.294593 255 0 0
0.110213 0.102124 0.009369 255 0 0
-0.128571 0.001627 -0.273585 255 0 0
0.016835 -0.041313 -0.235200 255 0 0
-0.075895 -0.122168 0.101599 255 0 0
0.079624 0.026228 0.477846 255 0 0
-0.109034 0.098427 0.011076 255 0 0
-0.204793 0.015869 -0.235301 255 0 0
0.200927 -0.004299 -0.312529 255 0 0
0.011312 0.109261 -0.067912 255 0 0
0.178103 -0.123445 0.146821 255 0 0
0.073040 0.120696 0.150522 255 0 0
-0.175575 -0.089651 -0.463580 255 0 0
0.182173 0.048611 0.340529 255 0 0
0.101235 -0.122070 -0.076946 255 0 0
0.093376 -0.032374 -0.442854 255 0 0
0.031085 0.032584 0.459615 255 0 0
-0.211804 -0.049129 -0.101358 255 0 0
0.136982 -0.078085 -0.205912 255 0 0
-0.181346 -0.119204 -0.165567 255 0 0
-0.206875 -0.086354 0.016438 255 0 0
-0.044338 -0.072840 0.246018 255 0 0
0.129190 0.086276 0.099730 255 0 0
0.149156 -0.130753 -0.086170 255 0 0
-0.192225 -0.037390 -0.395238 255 0 0
-0.060823 0.132077 0.170826 255 0 0
-0.125815 0.105831 0.140441 255 0 0
0.026475 -0.120300 -0.031452 255 0 0
-0.182173 -0.112752 -0.389830 255 0 0
0.197072 -0.027728 -0.171968 255 0 0
-0.003489 -0.044916 -0.340280 255 0 0
-0.153491 -0.132952 0.130499 255 0 0
-0.088739 -0.073478 -0.477876 255 0 0
0.007979 -0.122853 0.160144 255 0 0
0.018440 -0.116648 -0.077648 255 0 0
-0.166047 0.042007 0.380839 255 0 0
-0.156236 0.057989 0.225162 255 0 0
-0.204253 0.035747 0.477367 255 0 0
0.184960 -0.002995 -0.173319 255 0 0
-0.027760 -0.121110 0.046640 255 0 0
-0.092585 -0.055877 -0.479282 255 0 0
-0.106173 0.042603 0.476775 255 0 0
0.128934 0.046901 0.491451 255 0 0
0.014280 0.018867 -0.275436 255 0 0
0.061699 -0.039228 0.445431 255 0 0
0.072242 0.115627 0.100155 255 0 0
-0.193616 0.021126 -0.098409 255 0 0
-0.164960 -0.115799 0.131502 255 0 0
-0.076820 -0.107072 -0.429727 255 0 0
-0.000823 -0.101929 -0.438559 255 0 0
-0.216589 -0.010799 -0.233956 255 0 0
-0.087419 -0.122822 0.206764 255 0 0
0.052727 -0.036777 -0.318462 255 0 0
0.130446 0.014103 -0.438856 255 0 0
0.174799 -0.091807 -0.185541 255 0 0
-0.220897 0.002389 -0.259662 255 0 0
0.157908 0.056834 0.111364 255 0 0
0.010918 0.114793 0.083493 255 0 0
0.085069 -0.121375 0.430116 255 0 0
-0.124901 -0.072917 -0.197830 255 0 0
-0.103864 -0.020236 -0.404200 255 0 0
-0.080586 0.099691 0.221826 255 0 0
-0.182519 -0.082676 -0.183008 255 0 0
-0.099299 -0.031419 0.361923 255 0 0
0.234176 -0.002312 0.261848 255 0 0
-0.167948 -0.118985 -0.103209 255 0 0
-0.134721 -0.028291 0.461728 255 0 0
-0.087377 -0.083725 -0.344879 255 0 0
0.162141 -0.133128 0.071603 255 0 0
-0.049445 0.038204 0.455686 255 0 0
0.030091 -0.111503 0.127371 255 0 0
0.212939 -0.025104 -0.011560 255 0 0
-0.228153 0.011228 0.271459 255 0 0
-0.053097 0.034704 -0.212339 255 0 0
-0.183004 -0.052531 -0.460131 255 0 0
-0.167104 -0.003090 -0.294132 255 0 0
0.201824 -0.018716 0.402710 255 0 0
-0.237136 0.001465 0.271937 255 0 0
0.075755 -0.123577 -0.134396 255 0 0
0.164677 0.058998 0.294279 255 0 0
0.105660 -0.066013 0.435229 255 0 0
0.066222 -0.122152 0.149331 255 0 0
0.106422 -0.006308 0.461950 255 0 0
-0.144058 -0.118016 -0.000432 255 0 0
-0.217721 -0.037640 0.078502 255 0 0
0.190224 -0.065868 0.411215 255 0 0
0.042148 0.035463 -0.204293 255 0 0
0.187809 0.048982 0.270633 255 0 0
-0.144529 -0.132498 0.085048 255 0 0
-0.202705 -0.011266 0.131974 255 0 0
0.003837 0.012997 -0.250015 255 0 0
-0.199232 0.029766 0.032945 255 0 0
-0.215778 -0.028055 0.184179 255 0 0
-0.218283 -0.023947 0.104346 255 0 0
0.118431 -0.005850 -0.355981 255 0 0
0.066042 0.095787 -0.072565 255 0 0
0.167211 -0.120608 -0.163443 255 0 0
-0.197054 -0.113719 -0.120773 255 0 0
-0.138302 0.072310 0.291034 255 0 0
-0.108830 -0.082207 0.290936 255 0 0
0.151250 0.014570 -0.217953 255 0 0
-0.191564 -0.119727 0.179752 255 0 0
0.092555 -0.022165 0.241187 255 0 0
0.094929 -0.118135 0.176262 255 0 0
-0.077706 -0.121363 -0.072710 255 0 0
-0.197561 -0.054143 -0.417666 255 0 0
-0.200115 0.015268 -0.147359 255 0 0
-0.172455 0.054853 0.152048 255 0 0
0.029854 0.118178 0.064146 255 0 0
-0.209675 -0.117322 0.195582 255 0 0
0.117553 -0.119461 -0.083151 255 0 0
-0.028875 0.055798 0.496059 255 0 0
0.196316 -0.040123 -0.420247 255 0 0
0.158710 0.007927 -0.295115 255 0 0
-0.152401 0.043465 -0.030946 255 0 0
0.083295 0.064559 -0.116433 255 0 0
0.067764 -0.127886 0.446352 255 0 0
-0.096568 0.114762 0.123060 255 0 0
0.125192 0.045486 -0.126070 255 0 0
0.199613 0.333989 -0.305387 255 0 0
-0.017342 -0.066540 0.337546 255 0 0
-0.025498 -0.091913 0.287943 255 0 0
-0.029217 -0.086972 0.173458 255 0 0
-0.103676 -0.123626 0.034310 255 0 0
0.236612 -0.078523 0.212386 255 0 0
0.120555 -0.063746 -0.175167 255 0 0
-0.232249 -0.089971 0.200042 255 0 0
0.222849 -0.024798 0.223532 255 0 0
0.094508 0.107425 0.013117 255 0 0
0.140127 -0.007662 -0.447285 255 0 0
0.051959 0.055646 -0.157365 255 0 0
0.019995 -0.113195 0.372865 255 0 0
0.009467 0.121355 -0.066041 255 0 0
-0.059660 0.118396 0.065123 255 0 0
0.002381 0.002266 -0.313877 255 0 0
-0.160513 0.058315 0.281495 255 0 0
0.105349 -0.120891 0.119921 255 0 0
0.142884 -0.045401 0.447799 255 0 0
0.211536 -0.009103 0.155266 255 0 0
0.027848 0.017930 0.471893 255 0 0
-0.114803 -0.123803 -0.070818 255 0 0
-0.078132 0.085644 -0.091883 255 0 0
0.064598 0.121494 0.098068 255 0 0
0.004874 0.055111 0.351500 255 0 0
-0.162667 -0.112817 -0.171045 255 0 0
-0.154347 -0.130016 0.019916 255 0 0
0.020491 -0.122707 0.000875 255 0 0
-0.065852 -0.116563 -0.167951 255 0 0
0.000838 -0.119239 -0.149948 255 0 0
0.192252 -0.081324 -0.457880 255 0 0
-0.130857 -0.115352 0.067862 255 0 0
-0.200563 -0.054840 0.399221 255 0 0
0.156919 -0.054130 -0.178266 255 0 0
0.243576 0.005198 0.327988 255 0 0
-0.185850 -0.076585 -0.468509 255 0 0
-0.196803 -0.039073 -0.384552 255 0 0
-0.058897 -0.086137 -0.420582 255 0 0
-0.090513 -0.101972 0.456195 255 0 0
0.081308 0.078152 -0.108034 255 0 0
-0.233205 -0.007844 0.282775 255 0 0
-0.077896 0.118440 0.073067 255 0 0
0.230720 -0.007700 0.366062 255 0 0
-0.202897 -0.002042 -0.196075 255 0 0
0.013265 -0.129092 -0.219698 255 0 0
0.189103 0.012806 -0.189600 255 0 0
0.138090 0.019317 -0.233652 255 0 0
0.006963 -0.123546 0.015689 255 0 0
0.096343 -0.096506 -0.218664 255 0 0
-0.098189 0.081779 -0.069137 255 0 0
-0.006129 -0.119691 0.069917 255 0 0
-0.203984 0.014108 0.241711 255 0 0
0.073179 -0.115563 -0.227872 255 0 0
-0.192095 0.020734 -0.243764 255 0 0
-0.239395 0.003602 0.355350 255 0 0
-0.014026 0.041144 -0.213927 255 0 0
-0.031587 0.110028 0.040490 255 0 0
0.108620 0.064200 -0.103477 255 0 0
0.027609 -0.075291 -0.474409 255 0 0
0.157111 0.035448 0.422267 255 0 0
0.219141 0.001219 0.379130 255 0 0
-0.019190 -0.016119 0.447019 255 0 0
0.019140 0.116266 -0.028515 255 0 0
0.182863 -0.100918 -0.444735 255 0 0
-0.212501 -0.033620 -0.051972 255 0 0
-0.044711 -0.072410 -0.234132 255 0 0
0.143685 -0.079036 0.370426 255 0 0
0.136941 0.097450 0.205303 255 0 0
-0.118044 0.007122 -0.305113 255 0 0
-0.074305 -0.117996 -0.127179 255 0 0
0.182042 0.054247 0.239259 255 0 0
0.038256 -0.118200 -0.156668 255 0 0
0.012277 0.089892 -0.107581 255 0 0
0.112865 0.114599 0.111473 255 0 0
0.043812 -0.099268 0.386583 255 0 0
-0.221277 -0.052511 -0.129653 255 0 0
0.099681 -0.085031 -0.410173 255 0 0
-0.038904 0.029453 0.469537 255 0 0
-0.112100 -0.115719 -0.030341 255 0 0
-0.016955 0.121010 0.167186 255 0 0
-0.214980 -0.081131 0.167393 255 0 0
-0.034889 0.019792 -0.262254 255 0 0
-0.218900 -0.041351 0.159029 255 0 0
-0.186816 0.034334 0.085512 255 0 0
-0.086925 -0.116750 0.043080 255 0 0
0.147398 0.049764 0.013946 255 0 0
-0.211865 -0.044538 -0.138153 255 0 0
-0.093917 0.058165 0.312403 255 0 0
0.020068 -0.067383 0.311130 255 0 0
-0.007748 -0.099463 0.291467 255 0 0
-0.062461 -0.104669 0.451104 255 0 0
-0.091471 0.110011 0.017585 255 0 0
-0.218585 -0.058777 0.102020 255 0 0
0.224709 -0.011874 0.227842 255 0 0
-0.014409 -0.119485 -0.050447 255 0 0
0.202587 -0.013848 0.420556 255 0 0
0.087374 0.071760 -0.117002 255 0 0
-0.125068 -0.001380 0.454400 255 0 0
-0.060820 0.002866 0.462274 255 0 0
-0.032560 -0.071597 0.228878 255 0 0
-0.066728 0.065698 -0.127147 255 0 0
0.241691 -0.047933 0.221382 255 0 0
0.196561 -0.060540 -0.472484 255 0 0
-0.236198 0.003321 0.243900 255 0 0
0.194528 0.017995 -0.217068 255 0 0
-0.014995 0.031311 0.483637 255 0 0
-0.213234 -0.058238 -0.360029 255 0 0
-0.065514 -0.120553 0.070381 255 0 0
0.170016 -0.023071 0.466753 255 0 0
0.270139 -0.164431 -0.286585 255 0 0
0.140469 -0.125213 0.052061 255 0 0
-0.125799 -0.009296 -0.281760 255 0 0
-0.149791 0.102250 0.171149 255 0 0
-0.157262 -0.116471 -0.149786 255 0 0
0.035999 -0.068413 0.193608 255 0 0
-0.052283 -0.123113 -0.148972 255 0 0
-0.023600 -0.104748 -0.428470 255 0 0
-0.071591 -0.104779 -0.435501 255 0 0
-0.139547 -0.099806 0.263825 255 0 0
-0.020833 0.048844 0.487310 255 0 0
0.043397 -0.037021 -0.302572 255 0 0
0.020787 -0.121859 0.086777 255 0 0
-0.096594 -0.121475 0.092993 255 0 0
-0.010618 0.035622 -0.218635 255 0 0
0.024637 -0.009283 -0.364202 255 0 0
0.192278 0.037182 0.050245 255 0 0
0.148590 0.068744 0.070775 255 0 0
-0.052257 -0.122486 -0.003218 255 0 0
0.076418 -0.124541 0.448658 255 0 0
-0.190639 0.022840 -0.233155 255 0 0
-0.196967 -0.002418 -0.089903 255 0 0
0.078179 0.014286 -0.275407 255 0 0
0.023611 -0.113563 -0.178599 255 0 0
0.121119 0.041062 -0.141491 255 0 0
-0.212507 -0.031779 0.068223 255 0 0
-0.118301 0.110363 0.138454 255 0 0
-0.099629 -0.120683 0.063508 255 0 0
0.120184 -0.104427 -0.420854 255 0 0
-0.030428 -0.120897 -0.045146 255 0 0
-0.149019 -0.128983 0.155730 255 0 0
-0.072610 -0.115944 0.059600 255 0 0
-0.167485 -0.106359 -0.421644 255 0 0
-0.184344 -0.014736 -0.365620 255 0 0
-0.194493 0.035083 0.064860 255 0 0
-0.034877 0.084432 -0.105964 255 0 0
-0.118286 0.111446 0.113720 255 0 0
-0.139505 0.036276 -0.145306 255 0 0
0.157183 -0.008995 -0.364822 255 0 0
-0.083245 0.013285 -0.299964 255 0 0
0.169741 -0.018787 -0.422989 255 0 0
-0.137814 0.060430 -0.021322 255 0 0
0.044525 0.111322 -0.014781 255 0 0
-0.076565 -0.106472 0.434978 255 0 0
-0.175583 -0.069287 0.188439 255 0 0
0.161296 -0.003030 -0.348250 255 0 0
0.211753 -0.042244 0.405839 255 0 0
0.024353 -0.004852 -0.358120 255 0 0
0.049074 -0.001210 -0.334560 255 0 0
-0.081832 -0.099462 0.413638 255 0 0
-0.185580 0.044420 0.289012 255 0 0
-0.119264 -0.044194 -0.468097 255 0 0
-0.097160 0.049701 -0.158729 255 0 0
0.042254 -0.116074 -0.194212 255 0 0
-0.197687 0.027180 0.020756 255 0 0
-0.143895 -0.035566 0.460767 255 0 0
0.157085 -0.132858 0.050591 255 0 0
0.169479 -0.008538 -0.407036 255 0 0
-0.160702 -0.002571 -0.342594 255 0 0
0.206507 0.013265 0.119630 255 0 0
0.093387 -0.128954 -0.230091 255 0 0
0.204525 -0.005612 -0.305401 255 0 0
-0.213837 -0.038813 0.197067 255 0 0
-0.032021 -0.009640 0.406386 255 0 0
-0.119193 -0.115084 0.189369 255 0 0
0.077827 -0.089126 -0.390571 255 0 0
-0.053161 0.002226 -0.328826 255 0 0
0.133908 0.029233 0.475946 255 0 0
-0.166779 0.002447 -0.298520 255 0 0
0.145741 -0.063870 0.429865 255 0 0
-0.102586 0.085695 -0.055753 255 0 0
0.168225 -0.000319 -0.331733 255 0 0
-0.117341 -0.013954 -0.386930 255 0 0
-0.117704 0.090868 -0.049428 255 0 0
0.126507 -0.003938 -0.257896 255 0 0
-0.049983 -0.123625 -0.202583 255 0 0
0.170491 0.053860 0.316774 255 0 0
0.034359 0.001012 -0.344083 255 0 0
0.011331 0.064314 0.322746 255 0 0
-0.127551 -0.123005 0.045737 255 0 0
0.220525 -0.033572 0.079173 255 0 0
-0.120835 -0.118720 0.140425 255 0 0
-0.062183 0.114077 0.012885 255 0 0
-0.204090 0.013060 0.109244 255 0 0
-0.190114 -0.053334 0.431517 255 0 0
-0.138700 0.076264 0.271673 255 0 0
-0.234551 -0.034752 0.218795 255 0 0
0.052210 -0.118389 -0.015080 255 0 0
0.037443 -0.116460 0.025485 255 0 0
-0.133904 -0.019278 -0.203677 255 0 0
0.215734 -0.083797 0.195180 255 0 0
-0.085199 0.118034 0.107327 255 0 0
0.213696 -0.036957 -0.351951 255 0 0
0.011530 0.042427 -0.206088 255 0 0
0.095861 -0.122191 -0.017628 255 0 0
-0.039916 -0.120349 -0.070286 255 0 0
0.111984 -0.112585 -0.407587 255 0 0
-0.118302 -0.050360 0.442171 255 0 0
0.179336 0.021086 -0.194831 255 0 0
-0.153616 0.076705 0.155629 255 0 0
-0.141953 0.043099 0.401317 255 0 0
0.209950 -0.063234 0.089555 255 0 0
0.017029 -0.127470 0.185965 255 0 0
-0.011084 0.090091 0.256803 255 0 0
0.141738 0.012033 -0.286114 255 0 0
0.014339 -0.048671 -0.344272 255 0 0
-0.202662 0.001845 -0.200517 255 0 0
-0.037585 -0.121096 -0.097703 255 0 0
0.129341 -0.122832 0.092716 255 0 0
-0.212928 -0.036463 -0.101098 255 0 0
0.003096 -0.037250 -0.429557 255 0 0
0.068387 -0.120309 0.068686 255 0 0
-0.055187 0.054044 0.366129 255 0 0
-0.013707 -0.113768 -0.117186 255 0 0
-0.154059 -0.104733 -0.436587 255 0 0
0.205499 0.025734 0.464847 255 0 0
-0.186772 -0.116940 0.139733 255 0 0
-0.123254 0.093212 0.236107 255 0 0
-0.203294 0.007485 -0.092290 255 0 0
-0.021292 -0.041118 0.161459 255 0 0
0.165900 -0.057628 0.433562 255 0 0
0.124530 0.014928 -0.232932 255 0 0
0.133752 -0.132485 -0.194604 255 0 0
-0.200302 -0.071019 0.402392 255 0 0
-0.222581 -0.055096 0.141654 255 0 0
0.180733 0.046456 0.093873 255 0 0
-0.214391 -0.027947 0.216871 255 0 0
-0.164495 0.052130 0.109606 255 0 0
0.177667 0.035289 0.475274 255 0 0
-0.138351 -0.094590 -0.449583 255 0 0
-0.166167 -0.120200 -0.100346 255 0 0
-0.151587 -0.002190 -0.369856 255 0 0
-0.166582 0.024050 -0.159182 255 0 0
-0.202384 -0.001356 -0.271034 255 0 0
0.149744 0.013931 -0.255567 255 0 0
0.202359 -0.070032 -0.411588 255 0 0
-0.194679 0.034000 0.423685 255 0 0
0.011043 -0.116312 0.206506 255 0 0
0.104245 -0.014315 -0.396287 255 0 0
0.103724 -0.064818 -0.485071 255 0 0
-0.003306 -0.124361 -0.210433 255 0 0
0.140331 -0.127809 -0.088391 255 0 0
-0.195607 -0.061400 -0.447125 255 0 0
-0.222363 -0.011814 -0.308688 255 0 0
0.181372 0.052694 0.155723 255 0 0
0.220211 -0.074490 0.190244 255 0 0
-0.130170 -0.129144 -0.169173 255 0 0
-0.079829 -0.125832 -0.234067 255 0 0
-0.218713 -0.069604 0.034192 255 0 0
0.202679 0.035682 0.236904 255 0 0
-0.087054 -0.005306 -0.344221 255 0 0
0.103411 -0.036583 -0.363610 255 0 0
0.154301 -0.038407 -0.204978 255 0 0
-0.155429 0.072242 0.154445 255 0 0
-0.059397 0.063780 -0.140925 255 0 0
0.072406 0.116730 0.204000 255 0 0
0.191912 0.012217 -0.247551 255 0 0
-0.123569 -0.111270 0.371352 255 0 0
-0.202836 -0.012451 0.431319 255 0 0
0.326102 0.208948 -0.334688 255 0 0
-0.013890 -0.118264 0.462660 255 0 0
0.093773 -0.070680 -0.476014 255 0 0
0.078157 -0.116492 0.061425 255 0 0
0.048348 0.119310 -0.005202 255 0 0
0.229453 -0.002191 0.260148 255 0 0
-0.205733 -0.099850 0.015305 255 0 0
0.177788 -0.025913 -0.401641 255 0 0
-0.191290 0.016266 -0.219494 255 0 0
-0.056285 -0.098925 -0.436719 255 0 0
0.010305 -0.023929 -0.268035 255 0 0
-0.015332 -0.017036 -0.403086 255 0 0
0.130743 -0.063548 -0.478643 255 0 0
-0.226753 0.007163 -0.252613 255 0 0
-0.028069 0.021740 -0.264090 255 0 0
0.120776 0.083669 0.269652 255 0 0
0.221727 -0.044134 0.068193 255 0 0
-0.115839 -0.013440 -0.386002 255 0 0
0.077993 0.132144 0.163450 255 0 0
0.075534 -0.037764 -0.309485 255 0 0
-0.220428 -0.003323 0.372739 255 0 0
0.008527 -0.040858 0.447417 255 0 0
0.050985 -0.126009 0.179704 255 0 0
0.030574 -0.070470 0.307593 255 0 0
0.138266 -0.104630 -0.093931 255 0 0
0.070625 -0.035732 -0.308083 255 0 0
0.181383 0.040416 -0.016657 255 0 0
-0.028599 0.123931 0.133050 255 0 0
0.070992 0.044493 0.402936 255 0 0
0.005383 0.119675 0.013603 255 0 0
-0.085506 -0.041342 -0.264965 255 0 0
-0.008246 -0.056476 -0.467070 255 0 0
0.121915 -0.107472 -0.413591 255 0 0
0.122768 -0.118775 -0.378325 255 0 0
0.066260 -0.121880 0.059591 255 0 0
-0.114334 -0.123528 -0.130049 255 0 0
-0.186992 -0.049197 -0.455111 255 0 0
-0.170174 -0.082242 -0.461631 255 0 0
-0.197107 -0.115155 0.077662 255 0 0
-0.065106 -0.124606 0.194256 255 0 0
-0.231594 0.004235 -0.268964 255 0 0
-0.099246 -0.121271 0.037270 255 0 0
-0.209290 -0.082268 -0.168222 255 0 0
-0.139826 -0.062109 -0.485792 255 0 0
-0.119793 -0.049901 -0.206542 255 0 0
0.121826 -0.130891 0.199944 255 0 0
0.148993 -0.133141 -0.023215 255 0 0
-0.161321 -0.071570 0.420664 255 0 0
-0.168975 -0.118028 -0.379877 255 0 0
-0.109651 -0.122466 0.024523 255 0 0
0.049686 -0.034484 -0.442071 255 0 0
0.192874 -0.115657 0.012334 255 0 0
-0.090363 0.111184 -0.008643 255 0 0
0.139592 0.017455 -0.234368 255 0 0
0.071997 -0.022498 -0.270327 255 0 0
0.095779 0.080244 0.257381 255 0 0
-0.165721 0.044831 0.276412 255 0 0
-0.040513 -0.059283 0.328197 255 0 0
0.020745 -0.036018 -0.237635 255 0 0
-0.071778 -0.110164 0.000395 255 0 0
-0.101669 -0.111428 0.459282 255 0 0
0.222057 -0.037223 -0.129227 255 0 0
-0.000808 -0.002376 -0.340290 255 0 0
-0.424098 -0.075656 -0.350371 255 0 0
-0.084156 -0.120072 -0.047663 255 0 0
-0.013783 0.060530 -0.168527 255 0 0
-0.062303 0.099636 0.226371 255 0 0
-0.157807 -0.113402 0.238032 255 0 0
0.204964 -0.033423 -0.356431 255 0 0
-0.064879 0.121286 0.106017 255 0 0
-0.218204 -0.037997 0.193243 255 0 0
0.172125 0.043101 0.324659 255 0 0
0.167836 -0.119944 -0.018192 255 0 0
0.056299 0.067814 -0.139594 255 0 0
-0.042241 -0.120551 0.143434 255 0 0
-0.209824 -0.024658 -0.011582 255 0 0
0.023618 0.116096 -0.046886 255 0 0
-0.146865 0.040755 0.301563 255 0 0
-0.178756 0.021410 -0.092272 255 0 0
-0.112755 -0.005794 -0.353820 255 0 0
0.204873 -0.012922 0.009006 255 0 0
0.142806 0.056699 0.001605 255 0 0
0.217098 -0.065010 0.167919 255 0 0
0.222236 -0.033326 0.161105 255 0 0
-0.093782 -0.102282 0.376871 255 0 0
0.198653 0.015710 -0.141629 255 0 0
0.218143 0.013389 0.293447 255 0 0
0.151933 0.071875 0.283584 255 0 0
-0.017477 -0.122219 -0.113120 255 0 0
0.191014 0.019898 -0.193310 255 0 0
-0.008658 -0.119927 0.045754 255 0 0
0.079482 -0.025137 -0.423547 255 0 0
-0.049498 -0.111244 -0.423949 255 0 0
0.048894 0.118282 -0.017324 255 0 0
-0.101483 0.028655 -0.215495 255 0 0
0.141715 0.065905 0.039794 255 0 0
-0.001949 -0.049817 -0.474787 255 0 0
0.069069 -0.121994 0.031923 255 0 0
-0.185027 -0.075920 -0.174456 255 0 0
0.221048 -0.063621 -0.079487 255 0 0
0.058323 0.071121 -0.134938 255 0 0
0.197351 0.040518 0.102986 255 0 0
0.206416 -0.025016 0.161241 255 0 0
0.044423 0.002003 -0.308759 255 0 0
-0.182983 -0.115758 -0.157500 255 0 0
-0.063225 0.112988 -0.015825 255 0 0
-0.144203 0.015692 -0.238765 255 0 0
0.165900 0.058332 0.212526 255 0 0
0.189555 -0.014811 -0.352164 255 0 0
-0.164503 -0.108588 -0.192455 255 0 0
0.134552 0.033988 -0.142086 255 0 0
0.048206 0.119507 -0.002193 255 0 0
0.052856 0.010700 -0.279830 255 0 0
0.092865 0.060124 0.302220 255 0 0
0.122020 0.071189 0.293472 255 0 0
-0.160632 -0.015629 0.473355 255 0 0
0.196908 0.034054 -0.013597 255 0 0
-0.038526 -0.030761 -0.263464 255 0 0
-0.197022 0.013045 -0.165422 255 0 0
-0.078396 -0.121805 -0.121487 255 0 0
-0.076890 -0.122997 0.023603 255 0 0
-0.215265 -0.025880 -0.352895 255 0 0
0.004540 -0.065081 -0.396023 255 0 0
0.219031 -0.028291 0.040274 255 0 0
-0.150031 0.018308 0.468914 255 0 0
0.079640 0.033973 -0.207689 255 0 0
0.178144 0.069840 -0.274440 255 0 0
-0.103298 0.115473 0.198237 255 0 0
0.216760 0.004971 0.253659 255 0 0
0.221875 -0.040058 -0.044649 255 0 0
0.196166 0.037212 0.201659 255 0 0
0.129254 -0.060604 -0.483144 255 0 0
0.139833 -0.110689 0.106204 255 0 0
-0.072205 -0.129709 -0.229594 255 0 0
-0.140359 -0.093536 -0.453066 255 0 0
-0.036812 -0.090140 -0.443051 255 0 0
0.144981 -0.117351 -0.002640 255 0 0
-0.194606 0.041476 0.348185 255 0 0
-0.095793 -0.054231 0.197917 255 0 0
0.059866 -0.085420 -0.233071 255 0 0
-0.187375 -0.046926 -0.456627 255 0 0
0.181578 -0.078499 0.396996 255 0 0
-0.037214 0.123422 0.117119 255 0 0
-0.153455 -0.125523 0.217047 255 0 0
-0.082734 0.046384 -0.167498 255 0 0
-0.075939 -0.081612 0.316978 255 0 0
0.152840 -0.113884 0.310547 255 0 0
-0.048110 0.045565 0.400402 255 0 0
-0.163657 0.048051 0.369719 255 0 0
0.106649 -0.010008 -0.345109 255 0 0
-0.205854 0.023215 0.150154 255 0 0
0.104210 0.043237 0.490463 255 0 0
-0.194284 -0.121461 0.065520 255 0 0
-0.027959 -0.077510 -0.233314 255 0 0
0.208104 -0.070754 -0.167418 255 0 0
0.043001 -0.120787 0.074365 255 0 0
0.196459 -0.115021 0.052294 255 0 0
0.017205 0.134273 0.164928 255 0 0
0.182700 0.049847 0.285092 255 0 0
0.036280 -0.129017 0.198756 255 0 0
-0.162681 -0.086494 -0.194460 255 0 0
-0.057585 0.017696 -0.245407 255 0 0
0.191417 -0.010684 0.202390 255 0 0
-0.218998 -0.009870 -0.215474 255 0 0
0.016744 -0.123129 0.438613 255 0 0
-0.171786 0.039607 0.489179 255 0 0
-0.125823 0.037500 0.426709 255 0 0
-0.095920 -0.048774 -0.466264 255 0 0
0.076649 0.045190 0.484721 255 0 0
0.164287 -0.054851 -0.477098 255 0 0
0.118297 0.031669 0.481519 255 0 0
0.196601 -0.038867 0.437797 255 0 0
0.146145 -0.103062 -0.440497 255 0 0
-0.156313 -0.019234 0.376449 255 0 0
0.060706 -0.030727 -0.269905 255 0 0
-0.111427 0.037179 -0.175446 255 0 0
-0.115067 -0.027434 -0.415000 255 0 0
-0.022783 -0.128527 -0.201333 255 0 0
-0.204987 -0.091910 -0.095836 255 0 0
-0.115115 -0.038511 0.265043 255 0 0
0.114633 0.085803 0.263586 255 0 0
0.080974 -0.047970 0.424830 255 0 0
0.184878 0.039307 0.484675 255 0 0
0.148601 -0.054546 0.372293 255 0 0
0.198245 0.047894 0.187469 255 0 0
-0.079268 0.119176 0.051722 255 0 0
-0.138878 0.081870 0.092085 255 0 0
-0.122534 0.020190 -0.250265 255 0 0
0.162734 0.045294 -0.013225 255 0 0
-0.122980 -0.084264 0.413166 255 0 0
-0.006269 -0.020602 -0.419354 255 0 0
0.125960 0.084209 0.270661 255 0 0
-0.194176 -0.113095 -0.131545 255 0 0
0.131242 0.095623 0.225286 255 0 0
0.144626 0.056102 -0.020658 255 0 0
0.113775 0.120442 0.165874 255 0 0
0.095738 -0.120219 0.148379 255 0 0
-0.148682 0.085392 0.225537 255 0 0
0.173175 0.058824 0.198673 255 0 0
-0.205937 -0.006088 -0.052644 255 0 0
0.110832 0.111088 0.183883 255 0 0
-0.114249 -0.130294 -0.200048 255 0 0
-0.082463 -0.088500 -0.379081 255 0 0
0.149655 0.066943 0.242778 255 0 0
-0.244754 -0.017595 0.233455 255 0 0
0.207257 -0.092956 0.173234 255 0 0
-0.007234 0.034504 0.456936 255 0 0
-0.136050 0.116572 0.178246 255 0 0
0.013004 0.121063 -0.038756 255 0 0
0.206456 0.022428 0.464050 255 0 0
0.025012 0.119818 0.084688 255 0 0
-0.031770 0.117430 0.001900 255 0 0
-0.141350 0.038925 -0.111051 255 0 0
0.072431 -0.115594 -0.062833 255 0 0
0.136092 -0.125998 -0.132413 255 0 0
0.197625 0.043867 0.207878 255 0 0
0.129118 0.047481 0.391912 255 0 0
-0.146098 -0.007964 0.281162 255 0 0
-0.204540 0.009887 -0.020439 255 0 0
-0.061953 0.043762 0.485779 255 0 0
-0.209535 0.006279 0.431992 255 0 0
-0.154029 0.001997 -0.297176 255 0 0
0.138345 -0.000024 -0.341168 255 0 0
0.139797 0.040494 0.415038 255 0 0
-0.028007 -0.008101 0.457574 255 0 0
-0.074770 -0.117264 -0.135370 255 0 0
-0.013676 -0.039361 -0.324180 255 0 0
-0.051350 0.035085 -0.222624 255 0 0
0.180053 -0.121805 -0.125902 255 0 0
0.211276 -0.093524 -0.162406 255 0 0
0.113404 0.009406 -0.277588 255 0 0
-0.019029 0.086153 0.274248 255 0 0
0.094299 0.043945 0.374258 255 0 0
0.216897 -0.071150 0.145977 255 0 0
0.202311 0.021622 0.172721 255 0 0
0.160369 0.001332 -0.416945 255 0 0
0.084683 -0.115373 0.451280 255 0 0
0.109082 -0.091769 -0.219510 255 0 0
0.033658 0.008453 -0.295643 255 0 0
0.230667 0.004423 -0.260709 255 0 0
0.100403 0.107642 -0.007311 255 0 0
0.073724 0.037197 0.452982 255 0 0
0.179959 0.053334 0.287434 255 0 0
-0.210980 -0.091636 -0.009375 255 0 0
0.065976 -0.102826 -0.437264 255 0 0
0.229153 -0.095967 0.203692 255 0 0
0.068898 0.052031 0.360081 255 0 0
-0.087887 -0.040055 -0.459779 255 0 0
0.162545 0.035830 0.314554 255 0 0
-0.068521 -0.123514 -0.002147 255 0 0
0.199400 0.034334 0.311767 255 0 0
-0.149402 0.001934 0.471814 255 0 0
0.088389 0.044517 0.393305 255 0 0
-0.164505 -0.054217 0.440133 255 0 0
0.204682 -0.018735 -0.050287 255 0 0
-0.080233 -0.111188 -0.123346 255 0 0
0.216729 -0.075330 -0.048591 255 0 0
-0.088596 0.087373 -0.083034 255 0 0
0.182128 0.049917 0.330079 255 0 0
-0.219823 -0.047989 -0.140307 255 0 0
0.201272 -0.059209 -0.430474 255 0 0
0.032069 -0.114603 -0.154058 255 0 0
-0.138118 -0.125665 -0.059646 255 0 0
-0.070771 -0.027145 -0.424747 255 0 0
0.056478 -0.123017 -0.140854 255 0 0
0.044012 -0.095976 0.383655 255 0 0
0.143487 0.016502 0.353667 255 0 0
-0.154348 -0.056363 -0.473144 255 0 0
0.043147 0.048090 0.482340 255 0 0
0.100001 -0.130609 -0.216311 255 0 0
-0.230321 -0.010862 0.366617 255 0 0
-0.119475 -0.046581 -0.398038 255 0 0
0.134942 0.035646 0.484416 255 0 0
0.105454 -0.107490 -0.416525 255 0 0
0.059720 -0.055535 0.028553 255 0 0
0.024303 0.103558 0.205782 255 0 0
-0.152808 -0.114998 -0.041968 255 0 0
-0.078445 0.082451 -0.097027 255 0 0
-0.206721 0.021073 0.260632 255 0 0
-0.041511 0.055598 0.292249 255 0 0
0.170751 0.066416 0.184905 255 0 0
-0.203932 0.030248 0.264659 255 0 0
-0.025793 0.101475 -0.079906 255 0 0
-0.057081 0.019323 -0.265460 255 0 0
0.017350 -0.070409 0.276075 255 0 0
-0.188797 0.048796 0.236695 255 0 0
0.120174 -0.048170 -0.389877 255 0 0
0.107427 -0.123443 0.150770 255 0 0
0.024428 -0.101947 -0.438535 255 0 0
-0.213232 -0.089590 -0.156560 255 0 0
0.177948 0.033195 -0.060928 255 0 0
0.149000 -0.083244 0.401402 255 0 0
0.184040 -0.111784 -0.052253 255 0 0
0.035078 -0.100310 -0.437972 255 0 0
-0.193965 0.012152 -0.285007 255 0 0
0.225262 0.002883 0.203622 255 0 0
-0.119897 -0.119635 0.035926 255 0 0
0.151655 -0.047022 0.447333 255 0 0
0.005007 -0.123161 -0.012209 255 0 0
0.077208 0.063891 0.317140 255 0 0
0.185265 -0.118277 0.080166 255 0 0
-0.086706 0.076985 -0.108540 255 0 0
-0.050760 0.100748 0.228568 255 0 0
0.020745 -0.119811 0.108625 255 0 0
0.222168 -0.059924 -0.134992 255 0 0
-0.087140 0.018492 -0.227879 255 0 0
0.103112 -0.090019 0.317799 255 0 0
0.052274 0.050029 0.489984 255 0 0
0.202383 -0.101724 -0.050383 255 0 0
-0.221690 -0.044845 0.064536 255 0 0
0.161262 -0.122103 0.236937 255 0 0
-0.185043 -0.074074 0.399823 255 0 0
-0.221034 -0.053732 0.082651 255 0 0
0.123775 -0.004617 -0.339145 255 0 0
0.173670 -0.043943 0.449662 255 0 0
0.030136 -0.093592 -0.459299 255 0 0
0.090094 0.008855 -0.304179 255 0 0
-0.213490 -0.049368 0.195952 255 0 0
0.021126 0.053878 0.491357 255 0 0
0.204963 -0.089934 -0.058770 255 0 0
0.171111 -0.011893 0.470108 255 0 0
0.179636 0.025212 -0.165753 255 0 0
0.086002 0.116612 0.161389 255 0 0
0.023868 -0.037948 -0.457541 255 0 0
0.240514 -0.002218 0.332323 255 0 0
-0.165468 -0.127558 0.136481 255 0 0
-0.124858 -0.122889 0.069013 255 0 0
0.053041 -0.122369 0.144896 255 0 0
-0.016403 -0.116270 -0.098243 255 0 0
-0.020136 -0.120833 -0.187158 255 0 0
0.011102 0.113750 -0.010958 255 0 0
0.217943 -0.046003 0.066676 255 0 0
-0.212612 -0.090572 -0.000930 255 0 0
0.170327 -0.031982 0.291596 255 0 0
0.117491 -0.068208 0.420095 255 0 0
-0.239914 -0.038879 0.217151 255 0 0
0.215125 -0.070884 0.131331 255 0 0
-0.209128 0.001532 -0.227621 255 0 0
0.180979 0.037186 0.410798 255 0 0
0.208312 -0.094228 0.069754 255 0 0
-0.114161 0.098677 0.019378 255 0 0
-0.106469 -0.032644 0.281976 255 0 0
0.081379 -0.118338 -0.058505 255 0 0
-0.114613 -0.122132 -0.125851 255 0 0
0.199856 0.018261 -0.113989 255 0 0
0.181375 0.013077 -0.286465 255 0 0
0.236034 0.291773 -0.233315 255 0 0
0.159262 -0.007455 -0.418440 255 0 0
0.051711 -0.121506 -0.034890 255 0 0
-0.063963 -0.031029 0.362883 255 0 0
-0.216272 -0.077207 0.176159 255 0 0
-0.136287 -0.071569 -0.485238 255 0 0
0.134870 0.052944 0.305456 255 0 0
-0.015590 -0.102728 -0.436646 255 0 0
0.079855 -0.026460 -0.421244 255 0 0
0.227302 -0.063180 0.404429 255 0 0
-0.210050 0.001810 -0.229378 255 0 0
0.156832 -0.120197 0.262348 255 0 0
-0.196029 0.020845 -0.140896 255 0 0
-0.206232 -0.098161 0.034911 255 0 0
0.198879 -0.109763 0.011192 255 0 0
0.176337 0.018909 -0.263993 255 0 0
0.194201 -0.058405 -0.450587 255 0 0
0.080533 0.131343 0.181201 255 0 0
-0.063736 0.119662 0.050872 255 0 0
0.041674 0.097013 0.228585 255 0 0
0.179646 0.050557 0.174678 255 0 0
-0.061126 0.052308 0.356088 255 0 0
0.068335 -0.123342 -0.204872 255 0 0
0.169741 0.050405 0.332791 255 0 0
-0.198853 -0.112343 0.105545 255 0 0
-0.094005 -0.053259 0.269597 255 0 0
-0.044376 0.111542 -0.024177 255 0 0
0.097303 0.049976 0.344209 255 0 0
-0.158945 -0.105722 0.368129 255 0 0
0.212361 -0.031796 -0.069026 255 0 0
0.211016 -0.000794 -0.213295 255 0 0
0.206041 -0.005920 -0.018902 255 0 0
0.087231 0.045795 -0.172625 255 0 0
-0.171154 -0.122043 -0.047100 255 0 0
0.205748 -0.011336 0.118468 255 0 0
0.091194 0.092962 -0.057838 255 0 0
0.189614 -0.096774 -0.403212 255 0 0
-0.155132 -0.107930 -0.424620 255 0 0
-0.173506 0.015313 -0.204530 255 0 0
0.015691 -0.123567 -0.000389 255 0 0
0.182174 -0.117302 -0.379281 255 0 0
0.211526 -0.073671 -0.101497 255 0 0
0.197534 -0.114796 0.153493 255 0 0
-0.087720 0.078488 0.272580 255 0 0
0.087785 -0.042561 -0.217694 255 0 0
0.001449 0.121855 0.055637 255 0 0
-0.202666 0.031448 0.474915 255 0 0
0.220323 -0.042097 0.010928 255 0 0
-0.174888 -0.010035 -0.357730 255 0 0
0.235411 -0.000372 0.265890 255 0 0
0.005117 0.025496 -0.238678 255 0 0
0.066712 -0.015877 -0.385316 255 0 0
0.171308 0.052704 0.136418 255 0 0
0.034229 -0.115166 -0.113679 255 0 0
0.162606 -0.057557 0.330084 255 0 0
0.209056 -0.010350 0.141857 255 0 0
0.105153 -0.113785 -0.023792 255 0 0
0.134453 0.077221 0.124948 255 0 0
-0.211542 0.010801 0.213701 255 0 0
0.002255 0.087458 0.247597 255 0 0
0.146693 -0.111297 0.347719 255 0 0
0.192128 0.010124 -0.057469 255 0 0
-0.169290 -0.118741 -0.078235 255 0 0
-0.175317 0.027361 -0.076469 255 0 0
0.070880 -0.122235 -0.072148 255 0 0
-0.200423 0.041631 0.227236 255 0 0
0.042565 0.047123 0.382090 255 0 0
-0.161516 -0.056743 -0.466411 255 0 0
0.165116 0.058920 0.138137 255 0 0
0.088944 -0.090188 0.296774 255 0 0
-0.088325 -0.022352 -0.407194 255 0 0
-0.205257 -0.016842 -0.200179 255 0 0
-0.124064 -0.056098 -0.475360 255 0 0
-0.189225 -0.097838 -0.434524 255 0 0
-0.157087 -0.014278 -0.370831 255 0 0
0.059357 0.094796 -0.075935 255 0 0
-0.210277 -0.035844 -0.343387 255 0 0
0.089504 -0.119471 -0.085617 255 0 0
0.073357 -0.017780 -0.385760 255 0 0
-0.177881 0.030744 -0.115670 255 0 0
0.190789 -0.118840 0.110723 255 0 0
-0.073183 -0.115718 0.135649 255 0 0
0.193771 0.025054 -0.092419 255 0 0
-0.159121 0.038248 0.416456 255 0 0
-0.117651 0.055682 0.298223 255 0 0
-0.001164 -0.113003 0.010158 255 0 0
0.196837 0.024043 -0.085701 255 0 0
0.012513 0.098717 -0.079710 255 0 0
-0.185731 0.054098 0.222181 255 0 0
0.125155 -0.075242 0.420143 255 0 0
0.124895 -0.124010 0.198105 255 0 0
0.227922 -0.044812 0.385724 255 0 0
0.179446 -0.123395 -0.159771 255 0 0
0.218967 -0.074355 -0.034936 255 0 0
-0.180416 -0.119165 -0.052117 255 0 0
-0.204176 0.030005 0.467563 255 0 0
0.222790 -0.008861 0.244070 255 0 0
-0.214259 0.002501 0.377544 255 0 0
0.163391 -0.132009 0.070685 255 0 0
0.173438 0.033593 0.471537 255 0 0
0.216082 -0.000804 -0.230097 255 0 0
-0.106197 -0.019229 -0.340156 255 0 0
-0.244115 -0.039192 0.207165 255 0 0
-0.215733 -0.107067 0.195372 255 0 0
-0.101927 -0.077983 -0.370890 255 0 0
0.037179 -0.048356 -0.234553 255 0 0
-0.179025 0.047998 0.492990 255 0 0
-0.000025 0.125492 -0.061467 255 0 0
0.170503 -0.117869 -0.045525 255 0 0
0.004046 -0.019822 0.366374 255 0 0
-0.197863 0.012039 0.472304 255 0 0
0.134262 0.079231 0.081093 255 0 0
0.107287 -0.121176 0.056182 255 0 0
-0.117464 -0.118201 0.001302 255 0 0
-0.088877 0.047973 0.333592 255 0 0
0.201762 -0.003609 0.422697 255 0 0
-0.042104 -0.046806 0.445396 255 0 0
-0.046650 0.042510 0.417090 255 0 0
-0.123937 0.048317 -0.125598 255 0 0
0.199077 -0.111683 0.087401 255 0 0
-0.162228 0.039143 0.385339 255 0 0
-0.057991 -0.001554 -0.335371 255 0 0
0.213019 -0.007576 -0.204345 255 0 0
0.014024 -0.031144 -0.427771 255 0 0
-0.037584 -0.120633 -0.212811 255 0 0
-0.243904 -0.011184 0.255764 255 0 0
0.112012 -0.014176 -0.390623 255 0 0
0.203906 -0.106910 0.153679 255 0 0
-0.102415 0.014223 -0.290180 255 0 0
-0.210573 -0.051109 -0.382551 255 0 0
0.210017 0.004610 -0.241114 255 0 0
0.204769 -0.007898 0.358281 255 0 0
-0.152889 -0.118079 0.272061 255 0 0
-0.201570 0.002059 -0.065548 255 0 0
0.137433 0.004760 -0.326432 255 0 0
0.001938 -0.082856 -0.476631 255 0 0
0.046190 0.074103 0.301369 255 0 0
-0.173416 0.022591 -0.168768 255 0 0
0.135513 0.035732 0.484271 255 0 0
0.073030 0.030234 -0.203283 255 0 0
0.191807 -0.023917 -0.356689 255 0 0
0.108983 0.111840 0.143848 255 0 0
-0.007497 -0.129656 0.187220 255 0 0
-0.128677 -0.124175 0.167892 255 0 0
0.174521 -0.029841 -0.400655 255 0 0
0.245062 0.000393 0.330521 255 0 0
0.210968 -0.013799 -0.344317 255 0 0
0.129498 0.019068 0.343666 255 0 0
0.010963 -0.014441 -0.295673 255 0 0
-0.166284 0.058297 0.130023 255 0 0
0.143172 0.064027 0.016365 255 0 0
-0.086586 0.031019 -0.217482 255 0 0
-0.144429 -0.050488 -0.476335 255 0 0
-0.034257 -0.025632 -0.428657 255 0 0
-0.108433 -0.029441 0.453661 255 0 0
0.099777 0.014869 -0.287904 255 0 0
-0.074991 -0.027554 -0.415159 255 0 0
0.078715 0.120030 0.126818 255 0 0
0.080546 -0.123594 -0.032655 255 0 0
0.200650 -0.008987 0.442471 255 0 0
0.056114 -0.067493 -0.474680 255 0 0
0.103379 0.011884 -0.272768 255 0 0
-0.213765 -0.077243 -0.106486 255 0 0
0.180532 -0.096697 -0.175019 255 0 0
-0.221434 -0.005543 -0.201000 255 0 0
0.144483 -0.132546 -0.049330 255 0 0
-0.016907 -0.094058 0.451687 255 0 0
-0.121948 -0.072746 0.418565 255 0 0
-0.221286 -0.039496 -0.056996 255 0 0
-0.148957 0.017627 -0.255929 255 0 0
-0.197450 -0.039984 -0.385811 255 0 0
-0.124797 -0.129787 -0.205313 255 0 0
0.128889 -0.130831 -0.134159 255 0 0
0.187440 -0.004613 -0.144614 255 0 0
0.176260 0.020061 -0.188981 255 0 0
0.114899 0.051057 0.353818 255 0 0
0.163226 -0.106071 -0.195382 255 0 0
-0.103180 0.044320 0.487310 255 0 0
0.125882 0.019053 -0.224971 255 0 0
0.045528 -0.064256 -0.484545 255 0 0
-0.112267 -0.119085 0.026269 255 0 0
0.027844 -0.024574 -0.420005 255 0 0
0.120122 0.049486 0.370088 255 0 0
-0.205151 0.002851 -0.270465 255 0 0
-0.073564 0.089305 0.263563 255 0 0
0.154700 0.095470 0.174165 255 0 0
-0.141951 0.043396 0.395323 255 0 0
0.198295 -0.034778 0.435740 255 0 0
0.097326 0.040722 0.432486 255 0 0
-0.047425 0.062682 -0.159485 255 0 0
0.200637 -0.052732 -0.426798 255 0 0
0.197693 0.021272 0.253474 255 0 0
0.115131 0.043031 0.490003 255 0 0
0.113129 -0.069670 -0.212688 255 0 0
0.130915 -0.009361 -0.369751 255 0 0
-0.056270 -0.064221 -0.394151 255 0 0
-0.109495 -0.046555 0.263516 255 0 0
-0.099055 -0.105262 0.377618 255 0 0
0.196063 0.031281 0.035112 255 0 0
-0.222810 -0.059780 -0.093221 255 0 0
-0.199451 0.405847 -0.313610 255 0 0
-0.015794 -0.123177 -0.000600 255 0 0
0.223490 -0.018775 0.378251 255 0 0
0.070019 -0.121333 0.449136 255 0 0
0.210373 -0.000097 -0.233234 255 0 0
-0.167189 0.007009 -0.270864 255 0 0
-0.034495 0.015744 -0.283810 255 0 0
-0.102243 -0.018966 -0.390739 255 0 0
0.199491 -0.111147 0.081012 255 0 0
0.154532 -0.013630 0.332447 255 0 0
0.221456 0.003604 0.274497 255 0 0
0.120386 -0.037724 0.452214 255 0 0
-0.206888 -0.094046 -0.009302 255 0 0
-0.067308 0.029817 0.469537 255 0 0
0.083827 -0.053463 -0.278630 255 0 0
-0.067832 0.084215 -0.055745 255 0 0
0.159616 0.029142 -0.162774 255 0 0
-0.208363 0.005826 0.346676 255 0 0
-0.076640 0.120175 0.059859 255 0 0
0.200852 -0.010293 0.441150 255 0 0
0.108278 0.067612 -0.094381 255 0 0
0.187623 0.026487 0.475751 255 0 0
-0.102347 0.031585 -0.175919 255 0 0
0.108837 -0.050069 0.445970 255 0 0
-0.188299 -0.119696 -0.129592 255 0 0
-0.132854 -0.063199 -0.465056 255 0 0
0.211207 -0.050947 -0.393705 255 0 0
0.190805 0.029160 -0.098698 255 0 0
-0.120925 0.043826 0.479140 255 0 0
-0.210550 -0.039541 0.050010 255 0 0
0.205944 0.007335 -0.238055 255 0 0
-0.097328 0.118105 0.089925 255 0 0
0.110880 0.072345 -0.075185 255 0 0
-0.132522 -0.044727 -0.464687 255 0 0
-0.044794 -0.030313 -0.287157 255 0 0
-0.056626 -0.128764 -0.218797 255 0 0
-0.148099 0.045149 0.486654 255 0 0
0.129153 0.127328 0.188209 255 0 0
-0.095072 -0.114293 -0.160119 255 0 0
0.234801 -0.060802 0.215974 255 0 0
0.071469 -0.053093 0.258413 255 0 0
-0.198885 -0.055804 0.405406 255 0 0
-0.015457 -0.012111 -0.373679 255 0 0
-0.105398 0.111547 0.012800 255 0 0
-0.025001 -0.118680 -0.000600 255 0 0
-0.109981 -0.130247 0.209772 255 0 0
0.220053 0.002986 0.369263 255 0 0
-0.072156 0.103535 -0.053666 255 0 0
0.203711 0.020531 0.104858 255 0 0
0.083700 0.087562 0.271146 255 0 0
0.050915 -0.092496 -0.452909 255 0 0
-0.201881 0.034653 0.100604 255 0 0
-0.166781 -0.109298 0.355989 255 0 0
0.159215 0.058242 0.139227 255 0 0
-0.173126 0.038397 0.419312 255 0 0
-0.105874 -0.130874 -0.223175 255 0 0
0.012020 -0.041826 0.138034 255 0 0
0.064880 0.009366 -0.286029 255 0 0
-0.077093 0.077624 -0.097288 255 0 0
0.121268 0.086272 0.001425 255 0 0
-0.171112 -0.077167 0.316929 255 0 0
0.027191 -0.001112 -0.345697 255 0 0
0.202899 -0.012602 -0.167045 255 0 0
0.148185 -0.027096 0.210421 255 0 0
-0.237100 -0.007589 -0.306162 255 0 0
-0.098114 -0.123413 -0.034161 255 0 0
-0.057999 0.090652 -0.089041 255 0 0
-0.122625 -0.112937 0.357633 255 0 0
0.007120 -0.049925 -0.464178 255 0 0
-0.033421 -0.118261 0.172816 255 0 0
-0.194654 0.047569 0.234404 255 0 0
-0.157786 0.025765 -0.202013 255 0 0
-0.010744 0.001305 0.458814 255 0 0
0.020471 0.052380 0.367253 255 0 0
-0.010727 -0.121092 -0.102834 255 0 0
0.190965 -0.116346 0.077431 255 0 0
-0.178443 0.002907 -0.313005 255 0 0
-0.194520 -0.011859 -0.339916 255 0 0
-0.188805 0.026870 -0.059017 255 0 0
0.215254 -0.061805 -0.127227 255 0 0
0.187001 0.046725 0.280163 255 0 0
0.125846 0.036200 0.462669 255 0 0
0.033372 -0.104835 0.378453 255 0 0
-0.147099 0.055437 -0.016274 255 0 0
-0.031387 -0.123523 0.445207 255 0 0
-0.141604 0.073709 0.081896 255 0 0
-0.205716 -0.018514 0.045172 255 0 0
0.157937 -0.102186 0.344078 255 0 0
0.218894 0.003774 -0.226939 255 0 0
-0.186425 -0.089605 -0.449729 255 0 0
-0.008220 -0.009554 -0.361392 255 0 0
0.193859 -0.046670 -0.424455 255 0 0
-0.216842 -0.035682 0.112146 255 0 0
-0.056879 0.043177 0.479900 255 0 0
0.070997 -0.120083 0.160338 255 0 0
-0.060922 -0.119424 -0.052061 255 0 0
-0.034792 0.108902 -0.055479 255 0 0
-0.144220 -0.089150 0.396281 255 0 0
-0.046637 -0.061268 -0.490836 255 0 0
0.076677 -0.008694 -0.370792 255 0 0
-0.142455 -0.132683 0.145142 255 0 0
-0.219917 -0.056263 -0.086247 255 0 0
-0.142815 0.056719 0.304983 255 0 0
0.114323 0.051895 0.347718 255 0 0
0.161774 0.047416 0.492318 255 0 0
0.051503 0.133547 0.172584 255 0 0
0.187760 0.039719 0.170766 255 0 0
-0.186206 -0.071872 0.412835 255 0 0
0.112920 -0.086535 0.292804 255 0 0
-0.128692 0.089775 0.135053 255 0 0
-0.071446 0.112750 0.006000 255 0 0
0.078683 -0.119802 0.012193 255 0 0
0.106847 0.106776 -0.011542 255 0 0
0.145566 0.078609 0.153236 255 0 0
-0.091075 -0.056352 0.427973 255 0 0
0.090486 -0.027322 0.264530 255 0 0
0.061489 -0.044333 -0.467470 255 0 0
0.209695 -0.012399 0.181567 255 0 0
-0.152090 0.076284 0.133309 255 0 0
-0.067831 0.044407 0.422669 255 0 0
-0.078862 -0.105774 0.435495 255 0 0
0.017175 -0.067890 0.204111 255 0 0
-0.051217 0.055121 0.326665 255 0 0
-0.076789 -0.082899 -0.324429 255 0 0
-0.204556 0.029397 0.210909 255 0 0
0.168586 0.014071 -0.176331 255 0 0
-0.002128 -0.077629 -0.001833 255 0 0
0.012615 0.120000 0.079047 255 0 0
-0.010219 -0.117481 0.121067 255 0 0
0.135801 0.085133 0.203159 255 0 0
-0.013550 0.017260 -0.274105 255 0 0
0.205629 -0.012374 -0.137678 255 0 0
-0.213117 0.000806 -0.213176 255 0 0
0.131376 -0.133054 -0.116952 255 0 0
0.267518 0.228699 -0.237509 255 0 0
0.105740 -0.041814 -0.320263 255 0 0
0.138874 -0.131175 -0.026523 255 0 0
0.026433 0.109002 -0.067284 255 0 0
0.219848 -0.009148 -0.319004 255 0 0
-0.073847 0.114877 0.071365 255 0 0
-0.059357 0.080548 0.298688 255 0 0
-0.147090 0.030463 -0.151542 255 0 0
0.167259 0.043164 0.371710 255 0 0
0.051816 -0.002577 -0.344763 255 0 0
0.056325 -0.130611 -0.235936 255 0 0
-0.160441 0.034435 0.438169 255 0 0
0.075329 -0.119194 -0.134358 255 0 0
-0.174632 -0.081182 0.410140 255 0 0
0.206594 0.003849 0.172503 255 0 0
-0.161304 -0.115143 0.296486 255 0 0
0.198094 0.019299 0.082251 255 0 0
0.226783 0.017325 0.296244 255 0 0
-0.033825 -0.012138 0.450949 255 0 0
0.014662 0.099687 0.220563 255 0 0
0.072562 0.116800 0.147790 255 0 0
0.158190 -0.118280 0.250377 255 0 0
-0.134719 -0.130481 -0.015629 255 0 0
-0.199586 0.033171 0.157278 255 0 0
0.219973 -0.060956 -0.149369 255 0 0
-0.206258 -0.102080 -0.030959 255 0 0
-0.110481 -0.110868 -0.412053 255 0 0
-0.043588 -0.082209 -0.463809 255 0 0
-0.119338 0.016667 -0.224631 255 0 0
0.025617 -0.087056 -0.441684 255 0 0
-0.005878 0.041238 0.432435 255 0 0
-0.128803 0.030705 0.477666 255 0 0
-0.202034 -0.096218 -0.060314 255 0 0
0.143226 0.009809 -0.304634 255 0 0
-0.212520 -0.082631 -0.170601 255 0 0
-0.205694 0.025209 0.109642 255 0 0
0.048109 -0.042006 -0.349805 255 0 0
0.107708 -0.122975 -0.232110 255 0 0
0.118747 0.107611 0.198065 255 0 0
-0.143156 -0.131768 -0.067419 255 0 0
0.230168 -0.002395 0.237301 255 0 0
-0.184360 -0.103061 -0.422276 255 0 0
-0.169455 -0.034323 0.460690 255 0 0
-0.180452 0.053278 0.176497 255 0 0
0.082611 0.042254 0.410840 255 0 0
0.055460 -0.004045 -0.347903 255 0 0
-0.076313 -0.057692 -0.481317 255 0 0
-0.041156 -0.119288 0.107029 255 0 0
0.173132 -0.071893 0.422115 255 0 0
-0.036147 -0.119174 0.010050 255 0 0
-0.166814 0.122263 -0.248541 255 0 0
0.194456 -0.038320 0.442168 255 0 0
-0.141670 -0.048421 -0.461998 255 0 0
0.055576 0.061363 0.305311 255 0 0
-0.154461 0.031993 0.463608 255 0 0
-0.021170 -0.049034 -0.342547 255 0 0
0.115648 0.089627 0.269758 255 0 0
-0.211211 -0.008491 0.142509 255 0 0
-0.208886 -0.093720 0.157694 255 0 0
-0.198548 -0.017122 -0.336944 255 0 0
-0.130340 0.096388 0.134359 255 0 0
-0.148180 0.077302 0.249851 255 0 0
-0.202416 0.039236 0.217403 255 0 0
-0.034914 -0.112198 0.429020 255 0 0
0.085358 -0.046581 0.230143 255 0 0
0.072670 0.119230 0.056416 255 0 0
-0.061365 0.040454 -0.199345 255 0 0
-0.204882 0.008317 -0.224610 255 0 0
0.016491 0.034055 0.471250 255 0 0
0.223434 -0.000545 0.263742 255 0 0
0.034308 -0.066693 0.324943 255 0 0
-0.159469 0.052047 0.072761 255 0 0
0.077346 0.086479 0.265455 255 0 0
-0.022902 0.086826 -0.111244 255 0 0
0.149679 0.014555 -0.254619 255 0 0
-0.138040 0.039960 0.477020 255 0 0
0.060552 0.060547 -0.158667 255 0 0
0.056701 -0.064409 0.213982 255 0 0
-0.222872 0.007679 -0.233493 255 0 0
0.018159 -0.119512 0.436183 255 0 0
0.143151 -0.057902 -0.198792 255 0 0
0.115272 -0.116178 0.146257 255 0 0
-0.076456 0.119171 0.044100 255 0 0
-0.207344 -0.080339 -0.009365 255 0 0
-0.008011 0.103740 -0.080079 255 0 0
-0.169060 -0.008491 -0.416718 255 0 0
-0.028428 0.119017 0.029139 255 0 0
0.171070 -0.018014 0.467763 255 0 0
-0.176672 0.032802 0.400271 255 0 0
0.002577 -0.079442 0.315082 255 0 0
-0.000154 -0.121562 0.439488 255 0 0
-0.042623 -0.022668 0.445895 255 0 0
0.133168 -0.111245 0.371455 255 0 0
0.043055 -0.005607 0.453346 255 0 0
-0.106749 -0.119012 -0.165262 255 0 0
-0.044618 0.049899 0.392883 255 0 0
0.152781 -0.050642 0.437943 255 0 0
0.140463 0.027548 -0.141839 255 0 0
0.077973 -0.119212 0.090377 255 0 0
-0.215610 -0.024577 0.181222 255 0 0
0.003323 0.060079 0.331331 255 0 0
0.035051 -0.056923 -0.484434 255 0 0
-0.216962 0.009179 0.338488 255 0 0
-0.063243 0.062748 0.332623 255 0 0
-0.056060 -0.100993 -0.438027 255 0 0
0.059375 -0.067827 0.230810 255 0 0
0.013483 -0.121227 0.443601 255 0 0
-0.076102 -0.129498 0.192245 255 0 0
0.148084 0.035191 0.413299 255 0 0
-0.073980 0.026386 -0.226091 255 0 0
-0.134850 -0.002255 -0.348337 255 0 0
-0.029901 0.120951 0.039727 255 0 0
0.015333 -0.000186 0.346600 255 0 0
-0.140784 0.097424 0.187510 255 0 0
-0.139504 0.042336 0.482947 255 0 0
-0.075597 0.052038 0.491310 255 0 0
0.004789 -0.013404 0.449426 255 0 0
-0.062806 -0.034981 -0.445643 255 0 0
-0.213647 -0.083679 -0.123154 255 0 0
-0.199567 -0.004868 0.013710 255 0 0
-0.094036 -0.108278 0.452228 255 0 0
-0.215915 -0.041144 -0.112488 255 0 0
0.220281 -0.038920 -0.056052 255 0 0
-0.040148 -0.096792 0.428773 255 0 0
-0.038327 -0.117163 0.131231 255 0 0
0.152036 -0.128486 -0.008611 255 0 0
-0.010194 0.040107 0.435125 255 0 0
-0.169681 0.074310 0.176433 255 0 0
-0.211620 -0.017932 0.099673 255 0 0
-0.212320 -0.082667 -0.119422 255 0 0
0.179545 -0.010472 0.468045 255 0 0
-0.185609 0.021219 -0.262254 255 0 0
-0.020843 0.113530 0.208453 255 0 0
0.147621 0.075375 0.274002 255 0 0
-0.097673 -0.067943 -0.350054 255 0 0
-0.142833 0.054601 -0.082057 255 0 0
-0.138901 0.038609 0.395234 255 0 0
0.088509 -0.119036 0.121716 255 0 0
0.206863 0.010163 -0.293747 255 0 0
-0.174036 -0.123572 -0.107794 255 0 0
-0.096193 -0.106265 0.480855 255 0 0
0.100410 -0.072693 -0.482476 255 0 0
-0.132052 0.015738 -0.275650 255 0 0
0.040356 0.006831 0.461018 255 0 0
0.124492 0.042078 0.482292 255 0 0
-0.214311 -0.046083 -0.084526 255 0 0
0.031898 -0.051672 -0.236047 255 0 0
-0.143844 -0.126994 -0.138512 255 0 0
0.181724 0.015598 -0.224089 255 0 0
-0.158490 -0.064343 0.428992 255 0 0
-0.002014 0.029385 -0.232049 255 0 0
-0.062898 0.044956 0.492553 255 0 0
0.016543 -0.130953 -0.200993 255 0 0
0.120836 0.034221 -0.171030 255 0 0
0.208165 -0.004106 0.423192 255 0 0
0.212804 -0.082569 -0.050092 255 0 0
-0.000650 -0.023328 -0.406633 255 0 0
0.132586 0.025679 -0.183482 255 0 0
0.033204 0.032644 0.444266 255 0 0
-0.202192 0.038511 0.249116 255 0 0
-0.084712 -0.121880 -0.210995 255 0 0
-0.200479 0.045434 0.247444 255 0 0
-0.146227 0.033220 0.453140 255 0 0
0.210105 -0.082064 -0.038815 255 0 0
-0.113112 -0.104762 -0.439354 255 0 0
0.093880 0.026510 0.476566 255 0 0
0.221005 -0.050624 -0.001266 255 0 0
0.205579 -0.103552 0.100800 255 0 0
-0.119895 -0.047228 -0.389501 255 0 0
0.023684 -0.116390 0.187674 255 0 0
0.217029 0.019518 0.311078 255 0 0
0.107466 -0.025784 -0.308884 255 0 0
0.159933 -0.031090 0.367033 255 0 0
-0.112175 0.105256 0.209083 255 0 0
0.121796 0.027418 0.348251 255 0 0
-0.192303 0.033611 0.332798 255 0 0
-0.098906 -0.105011 0.470422 255 0 0
-0.025346 -0.122231 0.457434 255 0 0
-0.216301 -0.076459 -0.015855 255 0 0
0.071128 0.111302 0.030592 255 0 0
0.115395 0.107785 0.080859 255 0 0
-0.105159 0.054927 -0.130928 255 0 0
-0.209392 -0.047021 -0.318830 255 0 0
-0.095683 0.008965 -0.282797 255 0 0
-0.071872 -0.026812 -0.430097 255 0 0
-0.107634 -0.021909 -0.414961 255 0 0
0.147565 0.038517 0.421804 255 0 0
-0.091942 0.058038 0.323663 255 0 0
0.067850 -0.041012 0.220908 255 0 0
-0.089122 -0.019712 0.453762 255 0 0
-0.141080 0.038013 0.384780 255 0 0
0.205583 0.018929 0.332791 255 0 0
0.098064 0.091263 0.247538 255 0 0
-0.049408 -0.040764 -0.459630 255 0 0
0.165686 0.056018 0.304130 255 0 0
-0.004436 0.053381 0.379392 255 0 0
0.105802 -0.055771 -0.469478 255 0 0
-0.213834 -0.081529 0.011952 255 0 0
-0.217100 -0.065475 0.045745 255 0 0
0.018522 0.056621 0.351061 255 0 0
0.186710 0.052247 0.273685 255 0 0
-0.103689 0.047894 0.376198 255 0 0
-0.160891 0.030816 0.449128 255 0 0
0.055546 -0.070096 0.224799 255 0 0
0.195379 0.033074 0.383199 255 0 0
0.035044 0.122279 0.128055 255 0 0
0.198337 -0.077602 -0.436196 255 0 0
0.183926 -0.121335 -0.007614 255 0 0
0.000691 -0.128221 -0.236823 255 0 0
0.019838 -0.120549 -0.125243 255 0 0
-0.222482 -0.042977 0.017380 255 0 0
-0.146984 -0.096026 -0.459708 255 0 0
0.097802 -0.130776 0.187146 255 0 0
-0.142814 0.007445 -0.285396 255 0 0
0.152529 -0.121082 -0.115470 255 0 0
0.050739 -0.086551 0.291994 255 0 0
-0.081093 -0.082271 -0.392033 255 0 0
-0.068554 -0.001588 -0.340214 255 0 0
-0.118430 -0.045304 -0.470261 255 0 0
-0.166261 -0.109490 0.302491 255 0 0
-0.155632 -0.116054 -0.145596 255 0 0
0.211520 0.015158 0.341206 255 0 0
-0.117117 0.112541 0.145223 255 0 0
-0.011047 0.052557 0.373901 255 0 0
-0.042409 -0.069493 -0.404099 255 0 0
-0.025428 -0.104734 0.459372 255 0 0
-0.185960 0.051332 0.154914 255 0 0
0.015856 -0.117575 0.014037 255 0 0
