ply
format ascii 1.0
element vertex 1308
property float x
property float y
property float z
property uchar red
property uchar green
property uchar blue
end_header
-0.056116 -0.110002 0.131057 255 0 0
-0.219439 0.024318 0.407861 255 0 0
0.062862 0.060656 0.324334 255 0 0
0.220292 0.020762 0.035694 255 0 0
-0.049780 0.001356 0.094332 255 0 0
-0.022390 0.027199 -0.346358 255 0 0
0.156002 -0.109944 0.082383 255 0 0
0.031228 0.051849 0.441432 255 0 0
0.201545 0.053766 0.127564 255 0 0
-0.080213 -0.105466 -0.422372 255 0 0
-0.236569 0.019420 0.342143 255 0 0
-0.084601 -0.041214 0.488732 255 0 0
0.148839 -0.099732 -0.245220 255 0 0
-0.121707 -0.107867 -0.280223 255 0 0
0.010983 -0.109107 -0.258841 255 0 0
0.171016 -0.039390 -0.196175 255 0 0
-0.016211 -0.110702 0.067365 255 0 0
-0.028272 0.073487 0.285727 255 0 0
-0.070217 0.025014 0.470819 255 0 0
0.069651 -0.021702 0.082235 255 0 0
-0.075639 -0.108290 -0.318187 255 0 0
0.157695 -0.039584 -0.462646 255 0 0
-0.043503 0.049179 0.434127 255 0 0
-0.151387 -0.111064 -0.197578 255 0 0
0.191399 -0.027580 -0.400489 255 0 0
-0.187769 -0.103215 -0.399420 255 0 0
-0.068188 -0.111667 0.057290 255 0 0
-0.218812 -0.043420 0.013107 255 0 0
-0.082473 0.048710 -0.284411 255 0 0
-0.137830 0.075540 0.358955 255 0 0
0.181599 0.031919 0.080105 255 0 0
0.080645 -0.080988 0.292365 255 0 0
-0.218831 -0.045599 -0.057197 255 0 0
-0.147441 -0.098197 0.380864 255 0 0
0.178711 -0.035494 -0.416570 255 0 0
-0.207045 -0.071420 0.428679 255 0 0
0.129562 0.099215 0.119303 255 0 0
0.019366 0.078756 -0.196098 255 0 0
-0.019102 0.053193 0.227406 255 0 0
0.103424 -0.059453 -0.201582 255 0 0
0.067422 0.062198 0.373299 255 0 0
0.030845 0.051514 0.453334 255 0 0
-0.163732 0.072211 0.184478 255 0 0
0.197609 0.004765 -0.342351 255 0 0
-0.154579 0.061936 -0.167694 255 0 0
0.229175 0.034569 0.233229 255 0 0
-0.241156 0.039064 -0.148016 255 0 0
0.229306 -0.102243 0.173736 255 0 0
-0.049560 0.109674 -0.079495 255 0 0
-0.179916 0.056044 0.394624 255 0 0
0.054339 -0.414388 0.317379 255 0 0
-0.218293 -0.002868 -0.193639 255 0 0
0.053081 0.018429 0.141124 255 0 0
0.131016 -0.112355 0.180945 255 0 0
0.106383 -0.107919 -0.200330 255 0 0
0.208776 -0.047076 -0.365070 255 0 0
0.229489 0.016647 0.394889 255 0 0
0.038280 -0.108848 -0.158955 255 0 0
0.208183 0.059656 0.258182 255 0 0
-0.221211 0.003917 -0.208076 255 0 0
0.173814 0.079683 0.327688 255 0 0
-0.068848 0.039713 0.456725 255 0 0
-0.154754 -0.069973 0.329513 255 0 0
0.177053 -0.108456 0.127122 255 0 0
0.024026 0.057128 0.166263 255 0 0
0.198348 0.034802 0.436731 255 0 0
-0.036091 0.094172 -0.141688 255 0 0
-0.092548 0.088445 0.200251 255 0 0
-0.025295 -0.106622 -0.450643 255 0 0
0.089052 0.063343 -0.217665 255 0 0
0.094378 0.073852 -0.190036 255 0 0
-0.017665 0.057230 0.230355 255 0 0
0.216047 -0.059740 0.010617 255 0 0
0.108259 -0.111477 -0.308622 255 0 0
-0.111458 0.092688 0.275929 255 0 0
-0.130238 0.078170 0.366376 255 0 0
0.017156 0.088528 -0.157784 255 0 0
-0.089486 0.005484 -0.403898 255 0 0
0.194732 -0.058775 0.444918 255 0 0
-0.147650 -0.080936 0.420956 255 0 0
-0.071333 0.105497 -0.091621 255 0 0
-0.183836 -0.101920 0.366540 255 0 0
-0.212704 0.033616 -0.042280 255 0 0
0.036623 -0.100916 -0.379103 255 0 0
-0.165393 0.063549 0.391567 255 0 0
-0.173861 -0.099053 0.368327 255 0 0
0.146615 0.072122 -0.157888 255 0 0
0.044345 0.046866 -0.283968 255 0 0
-0.176191 0.011622 -0.360400 255 0 0
-0.215408 0.019637 -0.235220 255 0 0
-0.163000 -0.042807 0.471002 255 0 0
0.074079 -0.107216 -0.197403 255 0 0
0.157646 -0.085505 -0.076827 255 0 0
0.168649 -0.004081 -0.329689 255 0 0
0.217865 0.007072 -0.012201 255 0 0
-0.107111 -0.104525 -0.312460 255 0 0
0.219455 -0.043620 0.010855 255 0 0
-0.125620 0.058892 0.414301 255 0 0
0.166433 -0.093308 -0.212583 255 0 0
-0.001084 0.073888 0.295689 255 0 0
-0.082554 -0.105141 0.076741 255 0 0
-0.093842 -0.057716 0.470184 255 0 0
0.112747 0.037091 -0.176309 255 0 0
0.038546 -0.062077 0.463772 255 0 0
-0.164750 0.063168 0.090447 255 0 0
-0.068166 -0.022176 -0.455049 255 0 0
0.198595 -0.089022 0.026969 255 0 0
0.230639 -0.036519 0.177142 255 0 0
-0.210009 0.023790 -0.247189 255 0 0
0.229194 0.011550 0.161518 255 0 0
0.135590 0.037768 -0.280825 255 0 0
0.111153 0.100920 0.187753 255 0 0
-0.071050 -0.110749 0.043504 255 0 0
-0.227005 -0.113361 -0.027960 255 0 0
-0.016226 0.071818 0.256456 255 0 0
0.200288 -0.080045 -0.194417 255 0 0
0.079552 -0.112055 0.185889 255 0 0
-0.187647 -0.114774 0.349049 255 0 0
-0.223184 -0.109132 -0.135889 255 0 0
-0.062796 0.085558 -0.159795 255 0 0
-0.168469 0.069863 0.365767 255 0 0
0.204058 -0.093026 -0.042863 255 0 0
0.026576 0.067828 0.274281 255 0 0
0.003293 -0.106391 -0.497708 255 0 0
-0.092771 0.079211 -0.177940 255 0 0
-0.222703 -0.028498 0.427505 255 0 0
0.028323 0.058062 0.417688 255 0 0
-0.001663 -0.106674 0.176322 255 0 0
0.078697 -0.106947 -0.388095 255 0 0
-0.150567 -0.106309 0.170165 255 0 0
0.212516 -0.089700 -0.356362 255 0 0
0.125728 0.063141 0.137335 255 0 0
-0.020826 -0.111406 -0.344534 255 0 0
-0.004755 0.012158 -0.380743 255 0 0
0.118776 0.071095 0.392623 255 0 0
0.086689 0.056701 0.134465 255 0 0
-0.041463 0.010353 -0.376857 255 0 0
0.100286 0.046272 -0.281567 255 0 0
0.115144 0.044272 -0.274660 255 0 0
0.129424 -0.103988 -0.479628 255 0 0
-0.212032 0.028851 -0.003337 255 0 0
-0.190846 -0.097195 0.350034 255 0 0
-0.050148 -0.110740 -0.352154 255 0 0
0.004249 -0.059500 0.118813 255 0 0
0.068828 -0.112734 0.066030 255 0 0
0.073476 -0.087348 0.010725 255 0 0
-0.004307 -0.061519 0.482861 255 0 0
-0.175311 0.064700 0.377901 255 0 0
-0.215402 0.039765 -0.161775 255 0 0
-0.008512 -0.108678 -0.398624 255 0 0
-0.142084 -0.112430 0.087614 255 0 0
-0.185087 0.037064 -0.298369 255 0 0
-0.141440 -0.093617 0.381503 255 0 0
0.093248 -0.103943 -0.403049 255 0 0
-0.084049 -0.089170 0.373659 255 0 0
-0.118272 -0.113447 0.093414 255 0 0
-0.004203 0.102482 -0.120652 255 0 0
-0.159051 0.041751 -0.260670 255 0 0
0.215884 -0.008608 -0.341376 255 0 0
0.030057 -0.045925 0.259056 255 0 0
0.038221 0.064667 0.313429 255 0 0
-0.102027 0.084352 0.267525 255 0 0
-0.044480 -0.066442 0.060959 255 0 0
0.094280 0.105886 0.124181 255 0 0
0.121417 0.050050 0.117443 255 0 0
-0.144280 -0.112180 -0.002870 255 0 0
0.146808 -0.109883 0.112776 255 0 0
0.212745 -0.055705 0.009489 255 0 0
-0.037123 -0.109095 -0.319031 255 0 0
-0.021282 0.020541 -0.373785 255 0 0
-0.177796 0.079656 0.289416 255 0 0
-0.173054 0.062428 -0.013454 255 0 0
0.138367 0.096972 0.177738 255 0 0
0.004164 -0.110858 -0.305599 255 0 0
0.062352 -0.109425 -0.302594 255 0 0
-0.075072 0.104889 -0.088338 255 0 0
0.222645 -0.029434 -0.179924 255 0 0
-0.174513 -0.112722 -0.124145 255 0 0
-0.222373 -0.005568 0.155455 255 0 0
0.224557 -0.004884 0.014322 255 0 0
0.114259 -0.088875 -0.338349 255 0 0
0.082992 0.005307 -0.399730 255 0 0
-0.203738 -0.080132 -0.010242 255 0 0
0.094464 -0.107728 0.251702 255 0 0
0.198078 -0.092320 0.381033 255 0 0
0.203664 -0.100728 0.131830 255 0 0
-0.165183 0.041556 0.137786 255 0 0
-0.045856 -0.004274 -0.430290 255 0 0
0.224114 -0.109667 -0.121178 255 0 0
0.145165 0.077630 -0.119817 255 0 0
-0.215300 -0.110812 0.092668 255 0 0
-0.035576 0.056550 0.169336 255 0 0
0.082104 -0.101917 -0.478925 255 0 0
-0.201813 0.021503 -0.191126 255 0 0
-0.144151 0.031004 -0.329306 255 0 0
0.214939 -0.076393 0.399722 255 0 0
0.208433 -0.122976 0.371363 255 0 0
-0.109723 0.063804 0.434469 255 0 0
-0.014759 -0.052393 0.349052 255 0 0
-0.186554 -0.103358 0.139865 255 0 0
-0.008052 0.059459 0.451064 255 0 0
-0.154215 -0.107826 -0.358347 255 0 0
-0.011240 0.060542 0.410237 255 0 0
0.187417 -0.098119 0.088151 255 0 0
-0.194484 -0.005163 -0.376369 255 0 0
0.009424 0.060706 0.207867 255 0 0
-0.185071 -0.112758 0.032297 255 0 0
0.192443 0.003972 -0.349612 255 0 0
0.108227 -0.110677 -0.278323 255 0 0
-0.140111 0.040599 -0.279275 255 0 0
-0.066502 -0.101949 -0.488879 255 0 0
-0.091309 -0.111211 0.178169 255 0 0
0.084007 0.043934 -0.185968 255 0 0
0.060756 -0.059619 0.468741 255 0 0
-0.183591 -0.041370 -0.426275 255 0 0
0.006074 0.061591 0.232712 255 0 0
0.195116 0.010215 -0.310377 255 0 0
0.102566 -0.111680 0.167709 255 0 0
-0.190719 -0.015459 0.130497 255 0 0
-0.117777 -0.016726 -0.436261 255 0 0
-0.183516 0.015982 -0.349174 255 0 0
-0.090951 -0.096441 -0.464968 255 0 0
-0.129313 0.010987 0.108909 255 0 0
0.029962 -0.110932 -0.290659 255 0 0
-0.219295 0.010204 0.417628 255 0 0
-0.143898 -0.113138 -0.087520 255 0 0
-0.180044 0.045966 -0.022551 255 0 0
-0.117148 0.089639 0.270031 255 0 0
0.139680 0.093101 0.116505 255 0 0
0.175330 -0.044409 -0.432907 255 0 0
0.006051 -0.106651 -0.032702 255 0 0
-0.172185 0.056215 -0.166353 255 0 0
0.043875 -0.104155 -0.295234 255 0 0
-0.127224 0.094839 0.235763 255 0 0
-0.217537 -0.053550 -0.034891 255 0 0
0.133444 0.089724 0.146647 255 0 0
0.154933 -0.113479 -0.052719 255 0 0
0.053354 -0.097941 -0.485193 255 0 0
0.207359 -0.094121 -0.084468 255 0 0
0.176945 -0.072363 -0.246254 255 0 0
-0.139848 0.003066 -0.393248 255 0 0
0.216962 -0.022471 0.201780 255 0 0
-0.206712 -0.105027 0.357616 255 0 0
0.198875 0.027210 -0.304295 255 0 0
0.035469 -0.106424 -0.098754 255 0 0
-0.052024 0.040387 -0.315909 255 0 0
-0.196233 -0.070364 0.130829 255 0 0
0.130255 -0.042065 -0.468557 255 0 0
-0.201741 -0.080993 -0.192730 255 0 0
-0.220980 -0.046833 -0.114309 255 0 0
-0.180772 0.054351 -0.016053 255 0 0
-0.223578 -0.084640 0.403602 255 0 0
-0.036292 -0.000382 -0.419040 255 0 0
0.222036 0.015059 0.057876 255 0 0
-0.221230 -0.046012 0.035757 255 0 0
0.198854 0.044272 0.401825 255 0 0
0.229445 0.014633 0.268866 255 0 0
0.227494 -0.039314 0.104855 255 0 0
0.079696 -0.034596 0.477948 255 0 0
-0.104225 -0.112849 -0.177088 255 0 0
-0.134470 -0.053290 0.459310 255 0 0
0.202189 0.027809 -0.305178 255 0 0
-0.060078 0.055203 0.338705 255 0 0
0.118605 -0.112371 0.161260 255 0 0
-0.097404 -0.111934 0.035659 255 0 0
-0.045908 -0.106699 -0.261925 255 0 0
0.198483 -0.112786 -0.041089 255 0 0
0.217192 -0.027268 -0.074841 255 0 0
-0.187576 -0.114335 0.335033 255 0 0
-0.119946 -0.108931 -0.385949 255 0 0
-0.169178 -0.110697 -0.097494 255 0 0
-0.195756 -0.108299 0.193842 255 0 0
0.215301 -0.109884 0.115208 255 0 0
-0.195805 0.001746 -0.354302 255 0 0
0.225523 -0.110043 0.143154 255 0 0
-0.162097 0.082767 0.300595 255 0 0
0.105375 0.019545 -0.121389 255 0 0
-0.213694 -0.055591 0.045918 255 0 0
-0.189587 -0.096196 -0.408766 255 0 0
-0.129135 0.067722 0.383920 255 0 0
0.100119 0.066800 -0.205632 255 0 0
-0.027851 -0.111515 -0.150736 255 0 0
0.158190 0.078597 0.121971 255 0 0
-0.016126 0.044778 -0.263440 255 0 0
0.210010 0.037316 -0.029059 255 0 0
-0.081319 -0.112413 -0.161821 255 0 0
-0.127788 0.099177 0.135325 255 0 0
-0.027312 -0.105872 -0.415062 255 0 0
-0.045484 0.059214 0.150519 255 0 0
-0.059771 -0.035395 0.490841 255 0 0
-0.069676 -0.101270 -0.495212 255 0 0
0.033702 -0.109211 -0.269739 255 0 0
-0.076874 -0.014448 -0.443197 255 0 0
0.209421 -0.102106 0.139230 255 0 0
0.137722 -0.088916 0.382740 255 0 0
0.119867 0.080919 -0.151030 255 0 0
-0.131413 0.071046 -0.177325 255 0 0
0.105075 -0.079842 -0.028350 255 0 0
-0.134044 -0.109481 0.074587 255 0 0
0.197834 0.022747 -0.309326 255 0 0
0.115510 -0.103940 -0.388096 255 0 0
0.227917 -0.037418 0.114566 255 0 0
-0.184092 -0.105562 0.376440 255 0 0
-0.173764 0.038057 0.443382 255 0 0
-0.164577 0.014392 -0.327648 255 0 0
-0.164811 0.062137 -0.086229 255 0 0
-0.234985 0.014599 0.370285 255 0 0
0.233034 -0.055422 0.176689 255 0 0
0.151762 -0.115054 0.361540 255 0 0
-0.041486 -0.107724 -0.326585 255 0 0
-0.231921 0.021914 0.372332 255 0 0
0.152978 0.091316 0.192019 255 0 0
0.183862 -0.109869 0.079615 255 0 0
-0.037921 0.028910 -0.344567 255 0 0
0.211518 0.028585 -0.294060 255 0 0
0.218384 -0.030314 -0.198034 255 0 0
-0.083488 -0.109166 -0.137880 255 0 0
-0.189512 -0.110569 -0.121126 255 0 0
0.189421 -0.104572 -0.354900 255 0 0
0.039457 -0.105368 -0.464315 255 0 0
0.209575 0.056492 0.181131 255 0 0
0.069786 -0.072957 -0.482274 255 0 0
-0.224636 0.041805 0.260992 255 0 0
0.114497 -0.108714 0.231215 255 0 0
-0.117009 0.071594 0.379575 255 0 0
0.099325 -0.104221 0.264324 255 0 0
0.215008 0.038762 0.031975 255 0 0
0.033130 0.017470 -0.378555 255 0 0
0.147213 -0.112351 -0.166904 255 0 0
0.025634 -0.110049 -0.293020 255 0 0
-0.105795 -0.095294 0.388157 255 0 0
-0.071095 0.012074 -0.394957 255 0 0
0.217311 0.003674 0.038201 255 0 0
-0.209353 -0.111524 0.122779 255 0 0
0.099374 -0.108416 -0.364921 255 0 0
-0.070555 0.005583 -0.407426 255 0 0
-0.106721 -0.113639 0.080660 255 0 0
-0.159545 0.025989 -0.310212 255 0 0
0.220082 -0.029178 -0.099553 255 0 0
0.092028 -0.109975 -0.104923 255 0 0
-0.026866 -0.064009 0.476069 255 0 0
-0.063180 0.052499 0.455071 255 0 0
0.046448 0.061549 0.374063 255 0 0
-0.114413 -0.080091 -0.465735 255 0 0
-0.024249 0.070972 0.346089 255 0 0
0.052872 -0.074922 0.437654 255 0 0
-0.209648 0.055051 0.159640 255 0 0
-0.180815 0.052854 0.162057 255 0 0
0.004215 0.063895 0.291786 255 0 0
0.129498 0.093861 0.168544 255 0 0
0.021823 -0.113081 -0.078784 255 0 0
-0.091858 -0.107002 -0.365644 255 0 0
0.206555 0.033339 -0.134007 255 0 0
-0.028110 0.060792 0.223358 255 0 0
-0.211349 -0.085756 -0.080568 255 0 0
0.186449 -0.112828 -0.177949 255 0 0
0.215388 -0.110384 0.127902 255 0 0
0.016359 -0.062127 -0.487019 255 0 0
-0.038648 -0.083515 -0.486102 255 0 0
0.021420 -0.049641 0.090997 255 0 0
-0.079229 0.058721 0.387172 255 0 0
-0.116270 -0.008052 -0.425822 255 0 0
-0.088919 -0.039951 0.481333 255 0 0
0.002278 0.012125 -0.395619 255 0 0
-0.125676 0.047836 -0.249160 255 0 0
-0.123528 0.039847 -0.094938 255 0 0
-0.094485 -0.106941 -0.278068 255 0 0
0.196947 -0.077894 0.215997 255 0 0
-0.097427 -0.073350 0.433172 255 0 0
0.183855 -0.082865 0.208359 255 0 0
0.101896 -0.102917 -0.434605 255 0 0
0.179745 0.039698 -0.256743 255 0 0
-0.090528 -0.105739 0.108191 255 0 0
-0.203633 -0.098704 -0.044858 255 0 0
0.189065 0.064056 0.253529 255 0 0
-0.035955 0.053911 0.445631 255 0 0
-0.216419 -0.055593 -0.037790 255 0 0
-0.055210 -0.024536 -0.468908 255 0 0
-0.082137 0.081663 -0.162086 255 0 0
-0.107978 -0.101447 0.302823 255 0 0
0.186129 0.038697 0.021929 255 0 0
0.199031 -0.001232 -0.222590 255 0 0
-0.220090 -0.033600 -0.025620 255 0 0
-0.205993 -0.104204 0.363267 255 0 0
-0.147993 0.085453 0.145739 255 0 0
0.115435 0.066292 0.422490 255 0 0
0.091823 -0.049254 0.235866 255 0 0
0.073239 0.094916 0.106815 255 0 0
0.181882 -0.111781 0.103463 255 0 0
-0.155568 -0.106643 -0.143219 255 0 0
0.210815 -0.069922 -0.356805 255 0 0
0.154217 0.077058 0.076166 255 0 0
0.095465 -0.027299 -0.459166 255 0 0
0.116400 -0.112297 0.163392 255 0 0
-0.115560 0.091490 0.278763 255 0 0
0.171418 -0.106584 0.050961 255 0 0
-0.115949 -0.106129 0.134547 255 0 0
-0.142881 0.091655 0.227971 255 0 0
-0.168052 -0.108688 -0.055773 255 0 0
0.137620 -0.111651 -0.196544 255 0 0
-0.001356 0.002486 -0.413388 255 0 0
0.092559 0.094305 0.212444 255 0 0
-0.073538 0.060815 -0.227587 255 0 0
0.159528 0.081020 0.215125 255 0 0
-0.168655 -0.066718 -0.444782 255 0 0
-0.217081 -0.051168 0.063347 255 0 0
-0.202760 -0.099561 0.377274 255 0 0
0.227655 -0.113107 0.028198 255 0 0
0.179463 0.014601 -0.266288 255 0 0
-0.010310 0.007106 -0.408000 255 0 0
0.123456 0.018277 0.455952 255 0 0
0.095478 -0.101670 -0.351959 255 0 0
-0.215592 -0.059770 -0.022414 255 0 0
-0.207756 0.057798 0.239308 255 0 0
-0.028368 -0.110643 -0.287375 255 0 0
0.022480 -0.101268 -0.292319 255 0 0
0.179801 0.057164 0.190126 255 0 0
-0.215915 0.054051 0.313950 255 0 0
-0.052870 0.082917 0.109825 255 0 0
0.052592 0.106803 -0.085795 255 0 0
0.115272 0.093048 -0.095282 255 0 0
0.128317 -0.484820 0.225473 255 0 0
-0.093471 0.064129 0.326155 255 0 0
-0.066906 -0.105954 -0.432272 255 0 0
0.226462 0.032178 0.212007 255 0 0
-0.220569 0.034776 0.159236 255 0 0
0.002902 0.060227 0.201941 255 0 0
0.055024 -0.109546 -0.302594 255 0 0
-0.183961 -0.038189 -0.399148 255 0 0
-0.015268 -0.108017 -0.478035 255 0 0
0.021806 0.095342 -0.103097 255 0 0
-0.125244 -0.111599 -0.370746 255 0 0
-0.119481 -0.037185 -0.474896 255 0 0
-0.114514 0.103219 0.145699 255 0 0
-0.173888 -0.062438 -0.444799 255 0 0
-0.090325 -0.113173 0.032048 255 0 0
-0.188205 0.057262 0.198049 255 0 0
0.187760 -0.078732 -0.417467 255 0 0
-0.068253 -0.102919 0.376853 255 0 0
-0.043722 -0.108010 -0.101366 255 0 0
-0.129640 0.098437 0.184186 255 0 0
0.050975 -0.083166 0.371771 255 0 0
0.048320 0.065742 0.305483 255 0 0
0.155258 0.057803 0.425819 255 0 0
0.062386 0.055326 0.428273 255 0 0
-0.066182 -0.012378 -0.442635 255 0 0
0.095493 0.097505 0.188328 255 0 0
-0.181967 -0.109270 0.111531 255 0 0
0.196023 -0.091755 0.020511 255 0 0
-0.217821 0.029970 0.130036 255 0 0
-0.051000 -0.026626 -0.469047 255 0 0
0.122292 0.090200 0.231387 255 0 0
-0.102559 -0.015643 -0.446252 255 0 0
-0.064210 -0.082945 0.216706 255 0 0
0.095298 -0.053351 0.473753 255 0 0
0.156611 -0.110092 0.147063 255 0 0
-0.206663 -0.090060 -0.182382 255 0 0
0.160326 -0.102752 -0.469186 255 0 0
0.034775 -0.107956 -0.418215 255 0 0
0.069544 -0.102989 0.380825 255 0 0
-0.030422 -0.104862 -0.344384 255 0 0
-0.145630 -0.055878 0.469100 255 0 0
0.226204 -0.048566 0.123458 255 0 0
-0.082941 0.059711 0.447447 255 0 0
-0.224078 -0.028935 0.022535 255 0 0
0.187785 -0.101805 0.153851 255 0 0
-0.067431 0.107253 -0.073383 255 0 0
0.235676 -0.071832 0.121822 255 0 0
-0.169009 0.080115 0.284446 255 0 0
0.182074 0.082016 0.276815 255 0 0
0.012841 -0.017511 -0.439390 255 0 0
-0.025308 -0.108860 0.133907 255 0 0
0.111634 -0.099030 -0.280998 255 0 0
0.024222 0.042090 0.462182 255 0 0
0.116074 0.022874 0.464493 255 0 0
0.145420 -0.068008 0.223783 255 0 0
0.115398 -0.113320 0.098945 255 0 0
0.220794 0.015649 -0.256962 255 0 0
-0.154804 -0.070158 0.340701 255 0 0
0.132071 0.087612 -0.121342 255 0 0
-0.219263 -0.038321 -0.038933 255 0 0
-0.039688 -0.096303 -0.476538 255 0 0
0.221443 -0.047624 0.015519 255 0 0
0.102761 0.054500 0.410242 255 0 0
-0.095446 -0.111206 -0.169110 255 0 0
-0.025116 -0.006182 -0.437193 255 0 0
-0.083117 -0.108744 0.245204 255 0 0
0.182019 0.019532 0.456634 255 0 0
-0.056578 -0.109189 0.117579 255 0 0
-0.116761 -0.106515 -0.220418 255 0 0
0.127690 -0.104384 -0.409207 255 0 0
-0.046135 -0.055568 0.480412 255 0 0
-0.191957 0.044296 0.427701 255 0 0
0.174598 0.057553 -0.161208 255 0 0
-0.026215 0.060748 0.371473 255 0 0
0.112047 0.014839 0.473141 255 0 0
0.195756 -0.094552 0.215892 255 0 0
0.227333 -0.111583 0.198082 255 0 0
0.007362 0.018365 -0.382230 255 0 0
-0.123795 0.061760 0.435844 255 0 0
-0.177669 -0.107049 -0.137042 255 0 0
-0.215215 -0.012213 -0.081694 255 0 0
0.216724 -0.059809 -0.130087 255 0 0
0.075714 0.075435 -0.191484 255 0 0
-0.124930 -0.112794 -0.087461 255 0 0
-0.201004 -0.066384 0.358293 255 0 0
-0.064584 -0.103020 -0.492910 255 0 0
-0.173654 -0.072021 -0.244782 255 0 0
-0.135812 -0.077839 0.420270 255 0 0
0.061427 0.063347 0.205661 255 0 0
0.076722 0.083316 0.106675 255 0 0
0.003248 0.071032 0.260897 255 0 0
0.168414 0.036460 -0.308689 255 0 0
-0.081599 -0.109837 0.248618 255 0 0
-0.066373 -0.104902 -0.439064 255 0 0
-0.186322 -0.108207 -0.071749 255 0 0
-0.232166 0.009902 0.387327 255 0 0
-0.211554 -0.048974 -0.037926 255 0 0
0.074037 -0.113391 -0.098262 255 0 0
-0.017218 0.059968 0.445871 255 0 0
-0.024781 -0.113570 -0.096107 255 0 0
0.065028 0.070501 0.192404 255 0 0
-0.036515 0.062358 0.135471 255 0 0
-0.114903 -0.112629 -0.115894 255 0 0
-0.069985 -0.106322 -0.295391 255 0 0
0.057183 -0.000925 -0.418897 255 0 0
-0.217903 -0.076738 -0.108341 255 0 0
-0.101236 0.010715 -0.377868 255 0 0
-0.002122 0.060509 0.190790 255 0 0
0.109342 -0.109628 -0.007242 255 0 0
-0.218158 0.017940 -0.256584 255 0 0
0.230187 -0.012148 0.148716 255 0 0
-0.144802 -0.106089 -0.397347 255 0 0
0.219820 0.002711 0.053156 255 0 0
0.211698 -0.095674 -0.355839 255 0 0
-0.073283 -0.100850 -0.446962 255 0 0
-0.221362 -0.110634 -0.155862 255 0 0
-0.051383 -0.030338 0.079106 255 0 0
-0.093831 -0.108905 -0.154964 255 0 0
-0.166935 0.039561 -0.278307 255 0 0
0.222218 -0.027432 0.043183 255 0 0
0.028904 0.093552 -0.145484 255 0 0
0.100580 -0.054024 0.473421 255 0 0
0.222409 -0.000591 0.056413 255 0 0
0.143186 0.093372 0.228171 255 0 0
0.148951 0.086508 0.039593 255 0 0
0.231307 -0.035200 0.386586 255 0 0
0.132815 0.071487 -0.172035 255 0 0
0.220828 -0.059728 -0.148486 255 0 0
0.058641 -0.107741 0.214342 255 0 0
0.233155 -0.012837 0.171379 255 0 0
-0.093484 0.054431 -0.237306 255 0 0
-0.198902 -0.031769 0.142546 255 0 0
-0.072696 -0.110524 0.113809 255 0 0
0.210796 -0.068877 -0.061052 255 0 0
0.105837 -0.078889 0.227987 255 0 0
-0.037412 0.013830 0.097460 255 0 0
-0.023890 -0.107286 -0.225048 255 0 0
0.192981 -0.109275 0.077168 255 0 0
-0.126710 -0.025309 0.084209 255 0 0
-0.225382 -0.046443 0.107749 255 0 0
0.200635 0.039292 -0.178640 255 0 0
-0.052307 -0.103185 -0.277132 255 0 0
0.242346 0.046764 -0.146936 255 0 0
0.156072 -0.113367 -0.055719 255 0 0
-0.057422 0.047115 -0.263804 255 0 0
-0.109938 -0.083357 0.238030 255 0 0
0.148440 0.042521 -0.099020 255 0 0
0.105426 0.029508 -0.337855 255 0 0
-0.027110 0.059552 0.169043 255 0 0
-0.127887 0.097832 0.220301 255 0 0
-0.236118 -0.063322 0.182855 255 0 0
-0.199317 -0.112439 0.011325 255 0 0
0.218787 -0.109563 0.047260 255 0 0
-0.077642 -0.107265 -0.428244 255 0 0
0.117241 0.007422 -0.126722 255 0 0
-0.034379 0.054612 -0.161445 255 0 0
0.140577 -0.033452 0.470480 255 0 0
0.048169 -0.109922 0.043026 255 0 0
0.226668 -0.109632 -0.003755 255 0 0
-0.234987 0.033990 0.299877 255 0 0
-0.163091 0.025271 0.453607 255 0 0
-0.027217 0.048710 -0.264453 255 0 0
-0.184465 -0.083839 0.373272 255 0 0
0.002750 0.071263 0.245599 255 0 0
-0.223550 -0.102416 0.183983 255 0 0
-0.108701 0.046926 -0.284979 255 0 0
-0.189401 -0.035811 -0.397814 255 0 0
0.175018 -0.051755 -0.021207 255 0 0
-0.131317 0.103349 0.039290 255 0 0
-0.136633 -0.105894 0.106195 255 0 0
-0.104542 0.057668 0.413525 255 0 0
0.083279 0.102282 0.117316 255 0 0
0.095005 0.100222 -0.091137 255 0 0
0.148542 -0.059620 0.449018 255 0 0
0.224872 0.021676 0.317558 255 0 0
0.173697 0.085510 0.227615 255 0 0
0.088476 -0.083955 0.363076 255 0 0
0.169959 -0.050005 0.479243 255 0 0
-0.112021 -0.080283 0.045357 255 0 0
-0.162312 0.074678 0.150283 255 0 0
-0.082568 0.025031 -0.350914 255 0 0
-0.020683 -0.080990 -0.130616 255 0 0
0.199022 -0.113694 -0.068515 255 0 0
0.223149 0.018416 0.167196 255 0 0
0.065179 0.029382 -0.348062 255 0 0
-0.227664 0.037770 0.292754 255 0 0
-0.083759 0.062560 0.387302 255 0 0
-0.240675 0.034564 -0.146260 255 0 0
0.186942 0.074719 0.280598 255 0 0
0.215305 -0.053070 -0.066993 255 0 0
-0.090075 -0.112282 -0.090490 255 0 0
0.067797 0.055365 0.403633 255 0 0
0.225248 -0.085602 0.392800 255 0 0
0.081388 -0.051226 0.353266 255 0 0
0.231740 0.028845 0.302413 255 0 0
-0.085163 -0.111269 -0.217312 255 0 0
-0.026906 -0.110259 -0.190691 255 0 0
-0.002113 -0.107811 -0.156859 255 0 0
0.217590 -0.096194 0.390710 255 0 0
0.018137 -0.033647 0.038920 255 0 0
-0.211546 0.001707 -0.037543 255 0 0
-0.061032 0.055482 -0.241794 255 0 0
0.166267 0.033362 -0.310943 255 0 0
-0.214833 -0.112894 0.093122 255 0 0
0.054925 -0.048526 0.267057 255 0 0
-0.050488 -0.103459 -0.303972 255 0 0
0.105533 0.052838 -0.250922 255 0 0
0.232268 -0.031993 0.211923 255 0 0
0.149595 0.084004 0.270250 255 0 0
0.203887 0.047446 0.030864 255 0 0
-0.013944 0.070467 0.255340 255 0 0
0.049363 -0.049346 0.296878 255 0 0
0.070849 -0.108314 -0.221942 255 0 0
-0.171250 -0.110095 0.153181 255 0 0
0.086112 0.053430 -0.251265 255 0 0
0.061512 -0.045907 0.220325 255 0 0
-0.032273 -0.105248 0.074337 255 0 0
-0.162057 -0.045202 0.479362 255 0 0
0.118542 -0.110972 0.150560 255 0 0
-0.211653 -0.052889 -0.039793 255 0 0
-0.131942 -0.111596 0.194666 255 0 0
0.077974 -0.027140 0.086671 255 0 0
0.225700 -0.109926 0.009949 255 0 0
0.113599 -0.106377 -0.103064 255 0 0
-0.174094 -0.104171 -0.403755 255 0 0
-0.105410 0.028115 0.460889 255 0 0
0.054097 0.058749 0.450898 255 0 0
0.027461 0.040808 -0.316949 255 0 0
0.175578 0.070050 0.219940 255 0 0
-0.189930 0.057209 0.365376 255 0 0
-0.006192 0.046546 -0.274533 255 0 0
-0.223523 -0.103123 0.146811 255 0 0
-0.114555 -0.016253 -0.440657 255 0 0
0.152685 0.079883 0.153272 255 0 0
0.163912 -0.043359 -0.443364 255 0 0
0.090388 -0.108000 0.359105 255 0 0
0.132083 0.095474 0.060916 255 0 0
0.190565 -0.104666 0.065272 255 0 0
0.050345 0.008949 -0.385004 255 0 0
0.186458 0.014915 -0.354140 255 0 0
-0.090495 -0.056411 0.465462 255 0 0
-0.080446 -0.027035 -0.461679 255 0 0
-0.102984 -0.111782 -0.104433 255 0 0
0.174654 0.010205 -0.364601 255 0 0
0.233912 0.028139 0.323444 255 0 0
-0.094115 -0.112553 -0.015679 255 0 0
-0.205653 0.036856 0.018034 255 0 0
-0.212262 -0.108648 -0.366156 255 0 0
0.184210 0.021060 -0.338960 255 0 0
-0.077810 -0.091379 -0.369462 255 0 0
0.002236 -0.105917 -0.404207 255 0 0
0.092671 -0.090225 0.234829 255 0 0
-0.234035 0.024893 0.347086 255 0 0
-0.118957 -0.099482 -0.355287 255 0 0
0.150053 -0.054995 0.464583 255 0 0
-0.205715 -0.089952 -0.382773 255 0 0
-0.083808 -0.105031 -0.453897 255 0 0
0.162150 -0.108974 -0.184034 255 0 0
0.063785 -0.106913 -0.195965 255 0 0
0.089505 -0.113490 0.071222 255 0 0
-0.018284 0.054515 -0.256781 255 0 0
-0.201058 -0.078449 0.417982 255 0 0
0.036884 -0.077972 0.423729 255 0 0
0.204625 -0.110222 -0.153090 255 0 0
-0.075223 0.074480 0.216412 255 0 0
-0.175006 0.033128 -0.310802 255 0 0
0.182627 -0.063255 0.219052 255 0 0
0.178886 0.022661 0.448014 255 0 0
-0.193969 0.072963 0.233827 255 0 0
-0.164705 0.068177 0.057795 255 0 0
-0.186341 -0.103014 0.063345 255 0 0
0.106824 -0.073898 -0.292333 255 0 0
-0.120466 0.081389 0.109579 255 0 0
-0.094125 0.089986 -0.124387 255 0 0
-0.131672 -0.049130 -0.259587 255 0 0
0.178783 0.079132 0.314776 255 0 0
0.057022 -0.102419 -0.486842 255 0 0
-0.126401 -0.074362 -0.276179 255 0 0
-0.172035 -0.103471 0.368205 255 0 0
-0.086663 0.035699 -0.310702 255 0 0
-0.120770 -0.104329 0.116226 255 0 0
0.003684 0.035918 0.467798 255 0 0
0.075344 0.088831 0.146344 255 0 0
-0.202777 -0.108218 0.055015 255 0 0
-0.154912 -0.011340 -0.209420 255 0 0
-0.220022 -0.003110 -0.181386 255 0 0
0.234609 0.016801 0.328001 255 0 0
0.164700 0.038913 -0.226790 255 0 0
-0.233638 -0.027255 0.216312 255 0 0
0.124739 -0.048134 0.138505 255 0 0
-0.225788 -0.002189 0.104817 255 0 0
-0.015834 0.062605 0.135344 255 0 0
0.074595 -0.110347 0.185676 255 0 0
0.058038 -0.106319 0.127537 255 0 0
0.098481 -0.109842 0.044090 255 0 0
0.215694 -0.110325 0.161568 255 0 0
0.096188 -0.102770 -0.446681 255 0 0
0.102494 0.048971 -0.264668 255 0 0
0.156201 0.067760 0.356686 255 0 0
0.195400 0.057641 0.195012 255 0 0
-0.028198 0.060426 0.450844 255 0 0
-0.224868 0.034851 0.347110 255 0 0
-0.121469 0.092517 -0.115662 255 0 0
-0.203820 -0.070914 0.431763 255 0 0
-0.156312 -0.110550 0.200881 255 0 0
-0.138170 -0.008194 0.080603 255 0 0
0.159856 -0.002533 -0.400947 255 0 0
-0.001787 0.080981 -0.192619 255 0 0
0.154550 0.055598 0.432842 255 0 0
0.096448 0.100111 0.212089 255 0 0
0.177532 -0.054546 0.203232 255 0 0
0.230340 -0.040433 0.172856 255 0 0
0.037192 -0.049102 0.098955 255 0 0
-0.040738 -0.080556 0.422084 255 0 0
0.096602 -0.106081 -0.399643 255 0 0
-0.206513 -0.021194 0.450680 255 0 0
0.155444 0.025797 0.457264 255 0 0
0.032946 -0.026833 -0.130419 255 0 0
0.229146 0.008973 0.402639 255 0 0
-0.197270 -0.008919 0.453233 255 0 0
0.158697 -0.080684 0.420362 255 0 0
-0.011185 -0.044089 -0.488088 255 0 0
0.124407 -0.110667 0.118049 255 0 0
0.156933 -0.103266 -0.384534 255 0 0
0.077039 0.066478 -0.205898 255 0 0
-0.226036 -0.110814 -0.018580 255 0 0
0.013770 -0.113006 0.097061 255 0 0
0.229417 -0.080204 0.400285 255 0 0
0.088864 -0.104922 -0.423002 255 0 0
0.190013 0.037582 -0.268427 255 0 0
-0.005780 -0.097787 -0.410361 255 0 0
-0.177915 -0.108291 0.186567 255 0 0
-0.184598 0.081497 0.260085 255 0 0
-0.131249 -0.106179 -0.367626 255 0 0
0.010654 -0.105640 -0.332573 255 0 0
0.087798 -0.116992 0.281410 255 0 0
0.000012 0.059498 0.458644 255 0 0
0.111053 0.083268 0.327292 255 0 0
0.160077 -0.052077 0.472869 255 0 0
-0.007160 -0.112269 0.174265 255 0 0
0.076020 -0.060382 0.470807 255 0 0
-0.219471 -0.077301 -0.147699 255 0 0
-0.036984 -0.110247 0.010010 255 0 0
0.109532 0.083537 -0.129539 255 0 0
-0.092707 -0.108077 0.012200 255 0 0
-0.130673 -0.013934 -0.422729 255 0 0
0.070263 -0.107069 -0.168269 255 0 0
-0.236766 0.019136 0.347061 255 0 0
-0.215941 -0.049602 -0.020281 255 0 0
-0.157940 -0.076582 -0.239514 255 0 0
0.106545 -0.103295 0.374554 255 0 0
0.030503 -0.105447 -0.339311 255 0 0
0.069119 -0.053057 0.293479 255 0 0
-0.123954 -0.105169 -0.439854 255 0 0
-0.165798 -0.111081 0.113852 255 0 0
0.064317 -0.110897 0.151977 255 0 0
0.235408 -0.026786 0.201713 255 0 0
0.205933 -0.089379 -0.109950 255 0 0
0.227673 -0.006184 0.084294 255 0 0
0.214753 -0.061551 -0.062042 255 0 0
0.134929 -0.082539 0.420971 255 0 0
-0.007765 0.073640 0.293418 255 0 0
-0.082094 -0.055828 0.471016 255 0 0
-0.112104 0.062797 0.440550 255 0 0
-0.070524 -0.105097 -0.296215 255 0 0
0.033104 -0.109349 0.138088 255 0 0
-0.151038 -0.078692 -0.447788 255 0 0
-0.078911 -0.002006 0.471925 255 0 0
-0.122181 -0.112394 0.064526 255 0 0
0.156511 -0.084909 0.405476 255 0 0
0.003230 0.030661 -0.124197 255 0 0
-0.131381 0.024661 -0.086607 255 0 0
0.103312 -0.105682 -0.392933 255 0 0
-0.082885 0.062925 0.354315 255 0 0
0.071351 -0.072247 0.445749 255 0 0
0.089908 -0.110642 -0.366146 255 0 0
-0.232513 0.007806 0.178646 255 0 0
0.058773 -0.067131 -0.485508 255 0 0
0.149688 -0.068426 0.432765 255 0 0
0.203867 0.031692 0.429076 255 0 0
-0.043033 0.055481 0.201114 255 0 0
-0.062960 0.076372 0.111713 255 0 0
-0.153913 0.048035 0.441951 255 0 0
-0.120414 -0.112586 0.180625 255 0 0
0.061722 0.062978 0.260300 255 0 0
0.126893 0.093593 0.242028 255 0 0
-0.131990 -0.100772 0.313892 255 0 0
-0.048980 -0.000344 0.468826 255 0 0
-0.095626 0.054054 0.453945 255 0 0
-0.218385 -0.108769 -0.095068 255 0 0
0.002737 0.057695 0.179449 255 0 0
0.040777 0.080709 -0.178618 255 0 0
-0.028620 0.009987 0.460798 255 0 0
-0.038239 0.051419 0.453896 255 0 0
-0.208547 0.051179 0.353182 255 0 0
-0.079119 0.089413 0.184962 255 0 0
0.035498 0.065614 -0.220662 255 0 0
0.225011 -0.018420 0.185845 255 0 0
-0.135597 0.079750 0.353542 255 0 0
-0.017602 0.061693 0.371709 255 0 0
0.143520 -0.010274 -0.417882 255 0 0
-0.162463 -0.112208 -0.015337 255 0 0
0.101079 0.085105 0.290118 255 0 0
0.029920 -0.109879 0.211188 255 0 0
0.115430 -0.062191 0.463388 255 0 0
-0.096766 -0.107975 0.057338 255 0 0
-0.121453 -0.050211 -0.333379 255 0 0
-0.236915 -0.010845 0.204572 255 0 0
0.005356 -0.108898 -0.281685 255 0 0
-0.098900 -0.014659 -0.435097 255 0 0
-0.213460 -0.013442 0.446420 255 0 0
-0.048891 -0.109308 0.133677 255 0 0
-0.030332 -0.110991 -0.358048 255 0 0
-0.104381 0.106551 0.220470 255 0 0
-0.010534 -0.110392 -0.283114 255 0 0
-0.144507 -0.110576 0.151022 255 0 0
0.075480 -0.108511 -0.029973 255 0 0
0.011693 0.022436 -0.372910 255 0 0
-0.228694 0.035122 0.345385 255 0 0
0.209160 -0.102305 -0.116091 255 0 0
-0.220015 -0.040704 -0.061684 255 0 0
-0.216468 -0.067952 -0.094578 255 0 0
0.088522 -0.074234 0.307100 255 0 0
-0.132127 0.030784 -0.323497 255 0 0
-0.139445 0.078009 0.354629 255 0 0
-0.193081 0.029298 -0.003912 255 0 0
-0.073202 -0.062280 0.459169 255 0 0
-0.107946 -0.106776 -0.442860 255 0 0
-0.189357 -0.063750 0.353836 255 0 0
0.107205 -0.102584 -0.477555 255 0 0
-0.198577 0.050227 0.137510 255 0 0
-0.018863 -0.077096 0.363667 255 0 0
0.195008 0.048217 0.425961 255 0 0
-0.066907 -0.109382 -0.395878 255 0 0
0.146564 -0.102722 0.130102 255 0 0
0.077674 0.087662 0.145438 255 0 0
0.173604 0.064282 0.141459 255 0 0
-0.023389 0.032148 0.102047 255 0 0
0.003022 -0.106648 -0.085085 255 0 0
0.185611 0.004022 -0.327106 255 0 0
0.193049 -0.094461 0.048542 255 0 0
-0.003250 0.051307 0.449955 255 0 0
-0.129872 -0.114538 0.049041 255 0 0
0.173367 0.058447 -0.095061 255 0 0
-0.094799 -0.072027 0.448005 255 0 0
-0.175838 0.053962 -0.124511 255 0 0
0.188329 0.082807 0.268172 255 0 0
0.016104 -0.107216 -0.106186 255 0 0
0.073345 0.073967 0.229045 255 0 0
0.086694 -0.012426 -0.432431 255 0 0
0.177303 0.053262 -0.043541 255 0 0
-0.124213 -0.091858 0.211526 255 0 0
-0.099620 -0.063963 0.061963 255 0 0
-0.159241 0.033972 -0.144618 255 0 0
0.039810 0.053823 -0.255268 255 0 0
0.210438 -0.110798 0.055031 255 0 0
0.097112 0.024336 -0.348140 255 0 0
-0.105125 -0.112150 -0.053030 255 0 0
0.154946 -0.073287 0.219892 255 0 0
0.057990 0.005354 -0.402545 255 0 0
-0.127427 -0.111380 0.153547 255 0 0
0.163651 0.089672 0.195662 255 0 0
0.067612 0.082336 0.151751 255 0 0
0.112533 -0.078863 -0.234123 255 0 0
-0.096875 0.111705 -0.076153 0 255 0
0.190650 0.035551 0.450222 0 255 0
-0.026145 0.067080 0.168314 0 255 0
0.229980 0.036990 0.157643 0 255 0
0.162791 -0.113308 -0.413890 0 255 0
-0.107501 0.066115 0.365911 0 255 0
-0.046731 0.158910 -0.369829 0 255 0
0.226749 -0.081166 -0.107325 0 255 0
-0.072236 -0.118811 0.127522 0 255 0
0.224127 -0.016459 -0.168167 0 255 0
0.240866 0.014950 0.248561 0 255 0
-0.238266 0.018710 0.224506 0 255 0
0.011959 0.076634 0.347981 0 255 0
-0.022511 -0.112175 -0.386302 0 255 0
0.098179 -0.115111 -0.398488 0 255 0
-0.085972 -0.115617 0.041603 0 255 0
0.218607 -0.014762 0.451083 0 255 0
0.065886 -0.078490 -0.490045 0 255 0
0.033830 -0.069889 0.458738 0 255 0
-0.143153 -0.118751 -0.062605 0 255 0
-0.139581 -0.113973 -0.173313 0 255 0
-0.014795 0.076678 0.277689 0 255 0
0.008477 -0.116793 -0.092819 0 255 0
0.069556 0.064141 0.371433 0 255 0
0.131934 0.090433 0.297699 0 255 0
-0.085494 -0.074563 -0.019020 0 255 0
-0.060980 0.081292 0.194462 0 255 0
-0.224813 0.049168 0.331807 0 255 0
-0.084042 -0.117994 -0.002051 0 255 0
-0.191447 -0.091832 0.342317 0 255 0
0.079628 0.050504 0.461712 0 255 0
-0.244684 0.062012 -0.125612 0 255 0
-0.010569 0.067128 0.205938 0 255 0
0.379444 -0.435586 -0.156471 0 255 0
0.412429 0.394754 0.194032 0 255 0
-0.221263 -0.052903 0.214888 0 255 0
0.005473 -0.023830 0.488839 0 255 0
-0.178443 0.494636 -0.184960 0 255 0
0.229917 0.041074 0.345886 0 255 0
0.219842 -0.065367 0.013025 0 255 0
0.394317 -0.057364 0.215298 0 255 0
0.006828 0.060733 -0.276673 0 255 0
-0.003384 -0.042091 0.029897 0 255 0
-0.190700 0.075164 0.325037 0 255 0
0.183868 0.058560 -0.120060 0 255 0
-0.003317 -0.113446 -0.223390 0 255 0
0.447627 0.364900 0.347082 0 255 0
-0.130512 -0.058147 0.481967 0 255 0
0.041182 -0.108655 -0.478094 0 255 0
0.170918 0.065706 -0.087069 0 255 0
-0.176926 0.053748 0.234160 0 255 0
-0.225287 -0.010745 0.014791 0 255 0
0.114646 -0.080550 -0.327024 0 255 0
0.056467 -0.120811 -0.397067 0 255 0
-0.419381 -0.488604 0.253455 0 255 0
0.184017 0.018032 -0.354192 0 255 0
-0.206268 0.070527 0.347131 0 255 0
-0.254421 0.058831 -0.132968 0 255 0
-0.152185 -0.113520 -0.366587 0 255 0
-0.074409 0.051644 -0.291094 0 255 0
-0.053253 -0.109888 -0.465089 0 255 0
0.079276 -0.100379 -0.492592 0 255 0
-0.159104 -0.112508 -0.208757 0 255 0
-0.167618 0.058960 -0.203230 0 255 0
0.431111 -0.144372 -0.495397 0 255 0
-0.067546 -0.118786 -0.287167 0 255 0
-0.414682 -0.255107 0.174476 0 255 0
0.496862 0.356096 0.272866 0 255 0
-0.220322 0.020234 -0.077079 0 255 0
0.228596 0.025259 -0.106746 0 255 0
0.262097 0.055869 0.243772 0 255 0
0.167824 0.017554 0.457162 0 255 0
-0.157917 -0.032359 0.488008 0 255 0
0.061998 0.312483 0.103329 0 255 0
-0.026044 -0.110912 -0.450227 0 255 0
0.130398 0.078717 -0.167584 0 255 0
-0.061452 0.033416 -0.357432 0 255 0
0.144318 -0.039999 0.058854 0 255 0
0.174740 0.069134 0.139289 0 255 0
0.024659 -0.114462 -0.256739 0 255 0
-0.013655 0.370655 -0.159927 0 255 0
0.226908 -0.001238 -0.038778 0 255 0
0.074952 -0.117056 -0.186828 0 255 0
-0.079776 -0.129210 0.140810 0 255 0
-0.091071 -0.110705 -0.466727 0 255 0
0.280370 0.458449 -0.168449 0 255 0
0.044983 -0.112924 -0.255068 0 255 0
0.387448 -0.220983 0.095191 0 255 0
-0.224016 -0.113666 0.124851 0 255 0
0.066657 -0.021212 0.484205 0 255 0
-0.042198 -0.116091 0.035552 0 255 0
0.173672 -0.023323 -0.403392 0 255 0
-0.036955 0.093704 -0.171131 0 255 0
-0.185465 0.066118 0.000864 0 255 0
-0.065805 -0.017823 0.484214 0 255 0
0.068969 -0.120938 -0.044176 0 255 0
-0.195269 -0.336789 -0.302786 0 255 0
-0.020603 -0.116387 -0.079317 0 255 0
0.015145 0.063452 0.376083 0 255 0
-0.059844 0.003508 0.475920 0 255 0
-0.034084 0.075931 0.345988 0 255 0
-0.033913 -0.042757 0.011714 0 255 0
-0.122138 0.021387 -0.380116 0 255 0
-0.190690 0.053076 -0.182518 0 255 0
0.146569 0.110023 0.101120 0 255 0
0.222387 -0.015793 -0.200189 0 255 0
-0.221890 0.051855 0.253324 0 255 0
0.113035 -0.117191 -0.253038 0 255 0
0.212154 -0.112919 -0.379815 0 255 0
-0.195360 0.039435 -0.308205 0 255 0
-0.051167 -0.123980 -0.082491 0 255 0
-0.137164 -0.084688 0.443828 0 255 0
-0.083367 0.079192 0.285025 0 255 0
-0.235255 -0.015130 0.154464 0 255 0
-0.119852 -0.096331 0.310750 0 255 0
0.269539 -0.362185 -0.336676 0 255 0
0.124437 -0.084747 0.408837 0 255 0
-0.224947 -0.003202 -0.036571 0 255 0
-0.238440 0.002728 0.388812 0 255 0
0.235874 -0.056736 0.091445 0 255 0
-0.028515 -0.113948 0.203779 0 255 0
0.041501 0.065297 0.248437 0 255 0
0.244616 -0.041404 0.388366 0 255 0
0.438401 -0.391171 -0.492992 0 255 0
-0.092259 -0.108179 -0.442694 0 255 0
-0.050551 0.087506 0.485013 0 255 0
-0.219299 -0.082365 -0.054970 0 255 0
0.223184 -0.020530 -0.335045 0 255 0
0.139499 0.124673 0.123692 0 255 0
0.040203 0.111232 -0.113064 0 255 0
0.208191 -0.298531 0.374046 0 255 0
0.140549 0.080828 0.347987 0 255 0
0.163872 -0.073689 0.013871 0 255 0
0.223486 0.005211 -0.134407 0 255 0
0.227560 -0.097608 -0.360109 0 255 0
0.187532 0.071822 0.307266 0 255 0
-0.029823 0.114298 -0.079104 0 255 0
0.029079 -0.052758 0.499610 0 255 0
0.085670 0.055609 -0.304369 0 255 0
-0.181624 0.063066 0.181852 0 255 0
0.012887 -0.112877 0.197314 0 255 0
-0.142079 0.094698 0.121667 0 255 0
0.225672 -0.075525 0.193006 0 255 0
-0.005190 -0.120515 -0.179051 0 255 0
0.224338 -0.087223 -0.195401 0 255 0
-0.039856 -0.117498 -0.471526 0 255 0
0.230429 -0.035216 0.042201 0 255 0
0.069210 0.061898 0.419798 0 255 0
-0.171530 -0.019189 0.144168 0 255 0
0.223904 -0.026628 -0.168190 0 255 0
0.111656 0.108912 0.122702 0 255 0
-0.194855 0.093916 0.234830 0 255 0
-0.472858 -0.208951 -0.149456 0 255 0
0.248980 -0.015487 0.150576 0 255 0
0.218062 -0.072803 -0.367131 0 255 0
-0.126290 -0.104485 0.391026 0 255 0
-0.163120 0.054405 -0.208127 0 255 0
0.090396 0.073629 -0.204929 0 255 0
0.049295 -0.120875 -0.350124 0 255 0
-0.022137 -0.040793 -0.009366 0 255 0
0.224094 -0.025127 -0.360012 0 255 0
-0.239588 -0.089910 0.122099 0 255 0
0.075414 0.033892 -0.335900 0 255 0
-0.060140 0.072520 -0.223933 0 255 0
0.081741 0.029596 -0.368417 0 255 0
0.033184 -0.057843 0.488325 0 255 0
0.481721 -0.289978 0.439117 0 255 0
-0.369544 0.104560 0.234778 0 255 0
0.073971 0.018527 0.471781 0 255 0
0.154151 0.082711 -0.134483 0 255 0
0.170640 -0.054377 -0.464654 0 255 0
-0.098275 0.077400 -0.207870 0 255 0
0.171870 0.090784 0.218608 0 255 0
-0.171008 -0.118877 -0.042613 0 255 0
-0.030153 0.026370 0.079744 0 255 0
-0.083808 0.025393 -0.362565 0 255 0
0.218599 -0.114011 -0.167458 0 255 0
0.175283 -0.116037 -0.001136 0 255 0
-0.174389 0.067035 -0.140203 0 255 0
0.110928 -0.028499 0.079234 0 255 0
-0.170384 0.087783 0.184584 0 255 0
-0.190595 0.051960 0.441505 0 255 0
-0.347487 0.415092 0.428454 0 255 0
0.143437 0.103908 0.167611 0 255 0
-0.125990 -0.021437 -0.457756 0 255 0
0.139483 -0.114529 0.074444 0 255 0
0.136919 0.003253 -0.403300 0 255 0
0.151026 -0.178167 0.312245 0 255 0
0.130151 0.086174 -0.135422 0 255 0
0.176411 0.276549 -0.229349 0 255 0
0.141529 -0.061395 -0.468174 0 255 0
0.413586 0.416271 0.373193 0 255 0
0.027015 -0.108514 0.378725 0 255 0
0.068712 -0.116283 -0.029433 0 255 0
-0.076631 0.070821 0.336674 0 255 0
-0.242651 -0.038553 0.389427 0 255 0
0.050275 -0.119629 0.009971 0 255 0
0.120343 0.026635 -0.354311 0 255 0
0.233493 0.317472 -0.362115 0 255 0
0.234231 -0.056105 -0.169356 0 255 0
-0.101747 -0.031031 -0.484594 0 255 0
0.033846 0.121456 0.339280 0 255 0
0.097850 -0.115936 0.365528 0 255 0
0.465461 0.382340 -0.259800 0 255 0
0.498130 0.203134 -0.293708 0 255 0
0.007104 -0.121738 -0.313168 0 255 0
0.075177 -0.102035 -0.119575 0 255 0
-0.226331 -0.031513 -0.021574 0 255 0
-0.097527 0.031953 -0.345749 0 255 0
0.229297 0.010127 -0.228385 0 255 0
0.161642 -0.070528 -0.257758 0 255 0
0.045970 0.051816 -0.286266 0 255 0
-0.123747 -0.128881 -0.315366 0 255 0
-0.215385 0.054722 0.384390 0 255 0
-0.154449 0.092660 0.235792 0 255 0
0.174191 -0.009643 -0.415753 0 255 0
-0.036940 -0.050355 -0.007297 0 255 0
-0.077144 0.099215 0.197220 0 255 0
-0.044568 -0.003742 -0.435539 0 255 0
0.234427 -0.014132 0.103613 0 255 0
0.024038 -0.108694 -0.469602 0 255 0
0.192360 -0.115386 -0.396220 0 255 0
0.043477 -0.019483 -0.115961 0 255 0
0.217979 -0.082036 -0.017855 0 255 0
0.065621 0.065405 0.399636 0 255 0
0.019773 -0.038057 -0.042068 0 255 0
0.033849 0.188024 -0.114740 0 255 0
-0.169603 0.011903 -0.369132 0 255 0
-0.082116 -0.008342 -0.446332 0 255 0
-0.138688 -0.060224 0.038498 0 255 0
0.023770 -0.054680 0.488811 0 255 0
-0.138368 0.001142 -0.409805 0 255 0
0.134069 0.095771 -0.133665 0 255 0
0.142398 -0.009510 -0.432178 0 255 0
0.210276 0.037516 -0.174122 0 255 0
0.037522 0.057180 0.357949 0 255 0
-0.007331 0.149359 -0.356894 0 255 0
0.039861 0.055376 0.462336 0 255 0
0.063327 0.088909 0.153300 0 255 0
0.095565 0.093503 0.262344 0 255 0
-0.198548 -0.119448 0.051329 0 255 0
0.069528 -0.068565 0.000133 0 255 0
0.226503 -0.059005 -0.141851 0 255 0
0.222302 0.018678 -0.300811 0 255 0
-0.066531 -0.116006 -0.028318 0 255 0
-0.216831 0.053273 0.310200 0 255 0
0.076268 -0.112538 -0.391709 0 255 0
0.090013 -0.119869 0.094136 0 255 0
0.078923 -0.033051 -0.485017 0 255 0
0.194158 0.049389 0.022208 0 255 0
-0.121488 -0.116068 -0.301789 0 255 0
-0.039352 -0.116523 -0.062621 0 255 0
-0.141267 -0.108048 -0.202443 0 255 0
-0.224780 -0.116376 -0.173693 0 255 0
0.226569 -0.087165 -0.388843 0 255 0
0.146711 -0.115877 0.178345 0 255 0
-0.089404 0.083342 0.112117 0 255 0
0.072315 0.057603 0.299337 0 255 0
-0.152929 -0.006054 0.471340 0 255 0
0.088557 0.041940 0.463919 0 255 0
-0.114827 -0.116932 -0.323070 0 255 0
-0.243849 -0.031123 0.388263 0 255 0
0.114788 -0.318418 -0.477319 0 255 0
-0.161838 0.446834 0.280168 0 255 0
0.227689 -0.039777 0.044094 0 255 0
-0.172603 0.004768 -0.250149 0 255 0
0.007927 -0.000979 -0.434487 0 255 0
-0.237891 -0.109083 -0.032839 0 255 0
0.223080 0.018326 -0.033508 0 255 0
-0.215809 -0.075203 -0.005501 0 255 0
0.201135 0.051461 0.039947 0 255 0
-0.027543 0.041062 0.467449 0 255 0
0.037187 0.116686 -0.084509 0 255 0
0.008853 -0.113677 -0.340148 0 255 0
-0.112975 0.029390 0.469417 0 255 0
-0.003214 -0.117701 -0.182456 0 255 0
-0.186755 0.000299 -0.246320 0 255 0
-0.040973 -0.063713 0.496240 0 255 0
0.115816 -0.099270 -0.342994 0 255 0
0.245898 0.010464 0.247206 0 255 0
0.147303 -0.114090 -0.401189 0 255 0
0.011639 0.057166 -0.279955 0 255 0
0.046710 -0.119950 -0.192822 0 255 0
0.116925 -0.059109 -0.338221 0 255 0
0.109225 0.280392 0.374767 0 255 0
0.170237 -0.094453 -0.230739 0 255 0
-0.172992 -0.091020 0.418265 0 255 0
0.188886 -0.398764 -0.129459 0 255 0
0.140472 -0.252592 -0.474738 0 255 0
-0.222075 -0.006537 -0.078810 0 255 0
-0.003347 -0.026932 0.498837 0 255 0
-0.213976 -0.057521 0.091223 0 255 0
0.055967 -0.112441 -0.422206 0 255 0
0.228201 -0.051257 0.065057 0 255 0
0.134618 -0.116155 -0.190080 0 255 0
-0.091149 -0.118488 -0.318831 0 255 0
0.140588 -0.338516 -0.455222 0 255 0
-0.100371 -0.100929 0.385879 0 255 0
0.079364 -0.032195 0.493483 0 255 0
-0.097096 -0.109087 -0.483958 0 255 0
0.143880 0.098078 0.223592 0 255 0
0.023384 -0.085502 0.359579 0 255 0
-0.222996 0.052603 0.232326 0 255 0
-0.251558 0.356991 0.202875 0 255 0
0.035980 0.024261 -0.382601 0 255 0
0.388013 0.482442 0.173174 0 255 0
-0.186925 0.069628 0.253044 0 255 0
-0.239114 0.023684 0.253692 0 255 0
0.146519 0.098138 0.131099 0 255 0
0.178272 0.081120 0.164844 0 255 0
0.199219 -0.112287 0.150721 0 255 0
0.030018 0.047311 -0.155951 0 255 0
0.082504 0.100782 0.167483 0 255 0
-0.235704 -0.034681 0.134537 0 255 0
-0.234644 -0.032009 0.063752 0 255 0
-0.229561 -0.120186 0.013579 0 255 0
-0.056540 -0.010380 0.481809 0 255 0
-0.019568 -0.091236 0.442406 0 255 0
0.127862 -0.107507 -0.246238 0 255 0
0.181566 0.068047 0.382411 0 255 0
0.059207 -0.108660 -0.488515 0 255 0
-0.140026 0.089667 0.308789 0 255 0
0.087329 -0.001768 -0.420575 0 255 0
-0.200876 0.053937 0.096381 0 255 0
-0.014340 0.078944 0.358361 0 255 0
-0.207572 -0.113552 0.368226 0 255 0
-0.234046 -0.051822 0.384159 0 255 0
0.108695 -0.115459 0.010221 0 255 0
0.016053 -0.111057 -0.474023 0 255 0
0.160149 -0.111658 -0.460479 0 255 0
0.109350 -0.062556 0.191967 0 255 0
-0.040823 -0.112976 0.149158 0 255 0
0.137960 0.097709 0.229880 0 255 0
0.045566 -0.122190 0.005732 0 255 0
-0.259136 -0.164424 -0.434594 0 255 0
-0.054343 -0.082473 -0.494117 0 255 0
-0.176269 -0.010503 -0.420284 0 255 0
-0.106618 -0.005465 -0.425369 0 255 0
0.049292 -0.201903 -0.095640 0 255 0
0.159523 0.095854 0.250179 0 255 0
-0.051758 0.068159 0.307043 0 255 0
0.189458 -0.075301 -0.424666 0 255 0
0.053424 0.049693 -0.252994 0 255 0
0.197532 -0.065933 0.448831 0 255 0
-0.022405 -0.119671 -0.201103 0 255 0
0.109740 -0.113930 -0.301388 0 255 0
0.097178 0.099363 0.197489 0 255 0
-0.224695 -0.004335 -0.312921 0 255 0
0.023636 -0.230440 -0.115094 0 255 0
-0.151270 -0.115000 -0.193439 0 255 0
0.313139 -0.026809 0.424790 0 255 0
0.115702 0.053853 0.453495 0 255 0
0.166619 -0.049255 0.483698 0 255 0
-0.018930 0.050820 0.362223 0 255 0
-0.222406 -0.060493 0.003415 0 255 0
-0.043396 0.061003 -0.252421 0 255 0
0.175578 0.102203 0.168334 0 255 0
-0.412762 -0.119916 0.256630 0 255 0
0.091353 -0.061610 0.469464 0 255 0
0.397979 -0.413024 0.332378 0 255 0
-0.237787 -0.041912 0.403808 0 255 0
-0.229646 0.031234 0.194947 0 255 0
0.492521 0.475526 0.151876 0 255 0
0.153106 -0.118040 0.380708 0 255 0
-0.163951 -0.068884 0.447543 0 255 0
0.113205 0.033726 -0.334835 0 255 0
-0.185339 0.358440 0.447453 0 255 0
-0.009862 -0.036079 -0.045462 0 255 0
-0.000914 -0.053487 0.492157 0 255 0
0.162158 0.094518 0.290774 0 255 0
-0.225781 0.061379 -0.136734 0 255 0
0.155387 -0.004011 0.467059 0 255 0
0.132656 -0.054399 -0.474273 0 255 0
-0.141840 -0.026520 0.146006 0 255 0
-0.114985 0.106652 0.255704 0 255 0
-0.055765 0.005331 -0.419544 0 255 0
0.216061 0.035241 0.014033 0 255 0
-0.010419 0.050825 -0.135047 0 255 0
-0.212443 0.067019 0.236786 0 255 0
-0.192218 -0.119914 -0.156680 0 255 0
-0.248479 0.468787 0.371082 0 255 0
0.230972 0.024696 0.029072 0 255 0
-0.096086 0.075206 0.348839 0 255 0
-0.231927 -0.103229 -0.173389 0 255 0
-0.105588 0.033447 0.469127 0 255 0
0.136489 -0.120022 -0.139386 0 255 0
0.035082 0.060887 0.299765 0 255 0
0.037347 -0.114861 -0.266382 0 255 0
0.127058 -0.095269 0.411382 0 255 0
0.040218 0.028682 -0.374342 0 255 0
0.066314 -0.113188 -0.491058 0 255 0
0.142073 0.102480 -0.089799 0 255 0
0.231174 -0.058625 0.214073 0 255 0
-0.070146 -0.159857 -0.226586 0 255 0
0.457160 -0.215347 0.430649 0 255 0
0.124265 -0.108527 0.383581 0 255 0
0.025409 -0.055491 0.328033 0 255 0
-0.003872 -0.063585 -0.491193 0 255 0
-0.243049 0.017290 0.316463 0 255 0
0.069278 -0.117867 -0.370330 0 255 0
0.014657 -0.029076 -0.491768 0 255 0
0.161486 -0.147677 -0.341345 0 255 0
-0.190060 0.086143 -0.129109 0 255 0
-0.040008 0.010816 -0.417313 0 255 0
-0.186486 -0.052850 -0.433668 0 255 0
-0.024948 -0.034648 -0.046089 0 255 0
-0.192679 -0.115324 -0.010993 0 255 0
0.228365 -0.033861 -0.185663 0 255 0
-0.207168 0.173580 -0.139375 0 255 0
-0.086718 0.095254 0.215048 0 255 0
0.201756 0.307122 0.339986 0 255 0
-0.126528 -0.118419 -0.122275 0 255 0
0.003698 -0.117420 -0.160476 0 255 0
-0.222676 -0.097677 -0.357486 0 255 0
-0.216605 -0.111964 0.198892 0 255 0
0.222493 -0.045083 -0.086806 0 255 0
-0.229471 -0.340264 0.029167 0 255 0
0.081667 -0.073099 0.047376 0 255 0
-0.217139 0.045160 0.378248 0 255 0
-0.206786 -0.108893 -0.389787 0 255 0
0.223422 -0.038575 -0.064025 0 255 0
-0.160919 0.091670 0.231664 0 255 0
-0.130471 -0.108812 0.212613 0 255 0
