ply
format ascii 1.0
element vertex 1310
property float x
property float y
property float z
property uchar red
property uchar green
property uchar blue
end_header
-0.187308 -0.017477 -0.020646 255 0 0
-0.181772 -0.074684 -0.403186 255 0 0
0.025256 -0.105238 0.459720 255 0 0
0.089959 0.101322 -0.061097 255 0 0
0.092359 -0.126722 -0.478355 255 0 0
-0.165407 0.012437 -0.311148 255 0 0
0.129651 0.025581 -0.279929 255 0 0
0.089706 0.037409 -0.215987 255 0 0
0.188432 -0.061935 0.389980 255 0 0
-0.109125 -0.024514 0.297587 255 0 0
-0.020525 0.074834 0.335868 255 0 0
0.192851 -0.075084 0.039041 255 0 0
0.152766 0.072370 0.200863 255 0 0
-0.075961 0.067088 0.358919 255 0 0
-0.065937 0.013666 -0.375780 255 0 0
-0.104948 -0.099930 0.394981 255 0 0
-0.173912 -0.115819 -0.101868 255 0 0
-0.062500 0.061273 0.392495 255 0 0
0.180644 -0.058259 -0.224890 255 0 0
-0.041739 0.040637 0.462359 255 0 0
0.117053 -0.018880 -0.382885 255 0 0
0.076203 -0.107984 -0.436205 255 0 0
-0.168053 -0.116031 -0.204051 255 0 0
-0.158017 -0.113411 0.060570 255 0 0
0.187340 -0.090878 0.153444 255 0 0
0.157368 0.018774 -0.231428 255 0 0
0.181914 0.008439 -0.359463 255 0 0
-0.180814 0.007165 -0.187959 255 0 0
0.080968 -0.115556 -0.010742 255 0 0
-0.190769 -0.025164 -0.081856 255 0 0
0.185063 -0.118618 -0.058356 255 0 0
-0.008273 0.130879 0.102639 255 0 0
-0.100704 -0.121884 -0.100829 255 0 0
-0.014430 -0.110298 0.387041 255 0 0
0.191735 0.001761 -0.283321 255 0 0
0.134313 0.090136 0.085629 255 0 0
0.108968 -0.122964 -0.077355 255 0 0
0.108995 -0.108682 0.233467 255 0 0
0.190413 -0.067470 0.187000 255 0 0
0.008806 0.086119 -0.103910 255 0 0
-0.043712 -0.134161 -0.477131 255 0 0
-0.107356 0.108355 0.212432 255 0 0
-0.162882 0.050204 0.265620 255 0 0
-0.178977 -0.116771 -0.170427 255 0 0
0.104016 -0.079199 0.275981 255 0 0
0.020370 0.030481 -0.231583 255 0 0
0.054613 -0.118702 0.242374 255 0 0
0.182361 -0.121494 0.056748 255 0 0
-0.035503 -0.073980 0.484474 255 0 0
-0.162367 -0.084531 0.439853 255 0 0
-0.142882 -0.077000 -0.218561 255 0 0
-0.189536 -0.070677 -0.033489 255 0 0
0.132534 -0.118640 -0.001296 255 0 0
-0.190015 -0.087448 0.165693 255 0 0
-0.193490 -0.108120 -0.039518 255 0 0
-0.189736 -0.070600 0.077789 255 0 0
-0.084245 -0.000643 0.470501 255 0 0
-0.186241 -0.113021 0.165482 255 0 0
-0.136219 -0.053829 -0.463495 255 0 0
-0.189117 -0.015589 -0.001065 255 0 0
-0.146913 0.044588 0.423582 255 0 0
-0.107344 -0.035139 -0.351228 255 0 0
-0.165551 -0.027395 0.226845 255 0 0
0.108615 0.094961 0.287228 255 0 0
0.071573 0.102702 0.436707 255 0 0
-0.084860 -0.115474 -0.170099 255 0 0
0.156044 -0.112342 -0.186007 255 0 0
0.121942 -0.003892 -0.409241 255 0 0
-0.052974 0.131538 0.104026 255 0 0
0.176532 0.025869 0.301222 255 0 0
0.154381 -0.110063 -0.401119 255 0 0
-0.082518 -0.109444 0.225431 255 0 0
0.033921 0.100076 0.298481 255 0 0
0.188467 0.000153 0.152551 255 0 0
-0.037519 -0.108092 0.319139 255 0 0
-0.184314 -0.099623 0.046889 255 0 0
0.119388 -0.118209 -0.205764 255 0 0
0.115524 -0.070037 -0.397762 255 0 0
-0.095887 0.123228 0.069900 255 0 0
-0.193316 -0.044857 -0.114522 255 0 0
-0.060770 0.032675 -0.291084 255 0 0
0.188130 -0.029721 0.197190 255 0 0
0.150103 -0.036190 -0.447971 255 0 0
0.153837 -0.104723 0.420405 255 0 0
0.006651 0.119552 0.241317 255 0 0
0.158988 -0.117678 0.021033 255 0 0
-0.027704 0.114017 0.221794 255 0 0
0.112756 -0.067605 -0.469813 255 0 0
-0.188342 -0.022830 0.353062 255 0 0
0.186070 0.015149 0.184047 255 0 0
0.187862 -0.103341 0.087351 255 0 0
0.043748 0.014210 -0.366693 255 0 0
0.193012 -0.078922 0.058835 255 0 0
0.188485 -0.039961 -0.021090 255 0 0
-0.101128 0.097337 0.289326 255 0 0
-0.089594 0.058784 0.402755 255 0 0
-0.059266 -0.117962 -0.438647 255 0 0
0.271334 -0.486087 0.196563 255 0 0
-0.152119 0.078494 0.080824 255 0 0
0.125377 0.116362 0.002180 255 0 0
0.192701 -0.001473 0.332870 255 0 0
-0.155551 -0.121695 -0.107314 255 0 0
-0.125774 0.080382 -0.082984 255 0 0
0.036634 -0.116295 -0.073768 255 0 0
-0.149801 -0.098582 -0.440163 255 0 0
-0.017113 0.093224 0.313086 255 0 0
0.003969 -0.121845 0.161099 255 0 0
-0.069333 0.083830 0.327654 255 0 0
0.184046 -0.119972 0.065396 255 0 0
0.108404 -0.099627 0.251285 255 0 0
0.186627 -0.013681 0.185675 255 0 0
-0.065982 -0.125553 -0.481149 255 0 0
0.063241 0.073856 -0.125900 255 0 0
0.081368 0.024822 -0.326645 255 0 0
0.459215 -0.297216 -0.406037 255 0 0
0.151314 0.012373 -0.342123 255 0 0
0.191179 -0.043204 0.207088 255 0 0
-0.137697 -0.096976 -0.221827 255 0 0
0.184411 -0.020999 0.352160 255 0 0
0.179539 -0.118999 -0.170142 255 0 0
0.190855 -0.053989 -0.122311 255 0 0
0.148555 -0.004121 0.277606 255 0 0
-0.050546 0.121417 0.202660 255 0 0
-0.129497 0.029285 -0.265476 255 0 0
0.176554 0.022152 -0.053850 255 0 0
0.010084 -0.118298 -0.337216 255 0 0
0.014942 -0.119408 0.253668 255 0 0
0.044670 0.110720 0.256342 255 0 0
-0.068209 0.014482 -0.360967 255 0 0
-0.127764 0.103036 0.464043 255 0 0
0.007638 -0.118240 0.038430 255 0 0
0.040822 -0.028822 -0.468961 255 0 0
0.002095 0.116529 -0.030620 255 0 0
0.130937 -0.112981 0.202885 255 0 0
0.187257 -0.080616 -0.223009 255 0 0
0.042468 -0.112867 0.129024 255 0 0
-0.136267 0.078838 0.281735 255 0 0
0.101726 -0.117738 -0.154010 255 0 0
-0.187808 -0.110179 0.053955 255 0 0
0.155071 -0.120056 0.059507 255 0 0
-0.093987 -0.122020 0.056754 255 0 0
-0.086685 -0.066157 0.478047 255 0 0
-0.092870 0.100958 0.446016 255 0 0
0.020313 -0.054965 0.490140 255 0 0
0.046227 0.105999 0.262800 255 0 0
-0.156734 -0.089282 0.206691 255 0 0
0.013718 0.013346 -0.359200 255 0 0
0.119606 0.027922 -0.228417 255 0 0
0.143934 0.087727 0.007576 255 0 0
0.189488 -0.046418 0.213367 255 0 0
-0.179447 -0.007267 0.143091 255 0 0
0.086040 0.047726 0.454038 255 0 0
-0.122558 0.117997 0.014742 255 0 0
0.168734 0.023391 -0.035374 255 0 0
0.087199 0.104620 -0.055351 255 0 0
-0.177053 0.024620 0.289930 255 0 0
-0.092753 -0.108391 0.374765 255 0 0
0.189590 -0.050024 -0.093969 255 0 0
-0.184088 0.018331 -0.002490 255 0 0
-0.193424 -0.047796 -0.113231 255 0 0
0.008603 -0.125437 -0.450844 255 0 0
-0.189686 -0.004738 0.059087 255 0 0
-0.183242 0.002114 -0.065096 255 0 0
0.017003 0.074231 -0.125660 255 0 0
0.013403 -0.116422 0.087103 255 0 0
-0.103170 -0.046979 -0.317722 255 0 0
0.094718 0.004976 -0.389486 255 0 0
-0.093096 -0.106381 0.441459 255 0 0
-0.074733 -0.126988 -0.445063 255 0 0
-0.188215 -0.106591 0.200020 255 0 0
-0.157461 0.018994 -0.280510 255 0 0
-0.125603 0.104549 0.020830 255 0 0
-0.106823 -0.090066 0.370209 255 0 0
-0.185422 -0.042234 -0.207593 255 0 0
-0.038257 0.014239 -0.387704 255 0 0
-0.088917 0.079888 -0.094088 255 0 0
-0.067719 -0.115808 0.272943 255 0 0
-0.106437 -0.087131 -0.442828 255 0 0
-0.117514 -0.120209 0.026335 255 0 0
0.066484 -0.120450 0.066330 255 0 0
0.170406 0.011593 0.403498 255 0 0
0.013645 -0.119223 -0.026461 255 0 0
-0.043318 -0.122514 0.092892 255 0 0
0.189229 -0.066827 0.127564 255 0 0
0.003709 -0.115648 -0.201783 255 0 0
0.089331 0.018138 -0.322799 255 0 0
-0.159456 -0.121742 -0.170380 255 0 0
0.047693 0.123882 0.060988 255 0 0
0.190576 -0.067680 -0.125370 255 0 0
-0.114052 -0.086633 0.467965 255 0 0
0.105365 -0.105092 -0.274250 255 0 0
-0.058913 -0.101554 0.446719 255 0 0
-0.062624 -0.117296 0.257776 255 0 0
-0.078953 0.089476 0.311437 255 0 0
0.168367 0.032564 0.337949 255 0 0
0.144936 0.078042 -0.053875 255 0 0
-0.106088 0.104626 0.460117 255 0 0
-0.023754 -0.010999 0.498760 255 0 0
0.162969 -0.017446 -0.249994 255 0 0
0.188503 -0.041285 0.159165 255 0 0
-0.136338 0.086563 0.178626 255 0 0
-0.153706 -0.013959 -0.425217 255 0 0
0.064215 -0.084143 0.455865 255 0 0
-0.087483 -0.120416 -0.210088 255 0 0
0.169887 0.043168 0.326485 255 0 0
0.131258 -0.121664 0.189515 255 0 0
-0.035431 0.045199 -0.172967 255 0 0
-0.076525 0.017317 -0.347531 255 0 0
-0.046420 -0.118325 -0.250560 255 0 0
-0.192971 -0.006046 -0.262909 255 0 0
0.167458 0.022071 -0.224259 255 0 0
0.190700 0.000850 0.266173 255 0 0
0.109680 -0.060653 0.481987 255 0 0
-0.049069 0.029752 -0.251270 255 0 0
0.186265 -0.098311 -0.193347 255 0 0
-0.141641 0.012379 -0.350660 255 0 0
-0.013022 0.055237 -0.162224 255 0 0
0.105362 -0.051887 -0.239234 255 0 0
0.054648 -0.119187 0.107830 255 0 0
-0.101768 0.066281 0.356132 255 0 0
-0.141049 0.089470 0.215717 255 0 0
0.191132 -0.064348 -0.228494 255 0 0
-0.137276 0.031901 -0.193427 255 0 0
-0.072180 -0.093584 -0.441283 255 0 0
-0.139565 0.094845 0.073101 255 0 0
0.104300 -0.121827 -0.106818 255 0 0
0.137843 0.091489 -0.001822 255 0 0
0.192774 -0.099435 0.124759 255 0 0
0.175093 0.036209 0.208163 255 0 0
-0.155004 0.027464 -0.168321 255 0 0
0.106545 -0.122160 -0.327692 255 0 0
-0.190107 -0.076086 -0.140265 255 0 0
-0.069343 -0.117824 -0.016392 255 0 0
-0.180572 0.001127 -0.037059 255 0 0
0.178277 0.028855 0.196584 255 0 0
-0.159488 0.054236 0.154223 255 0 0
-0.116379 -0.016778 -0.383283 255 0 0
-0.115418 -0.120616 -0.114092 255 0 0
-0.157674 -0.050083 -0.443238 255 0 0
-0.186566 0.011735 0.223806 255 0 0
-0.122161 -0.106607 0.395012 255 0 0
0.038360 0.070998 -0.121727 255 0 0
0.013173 0.025284 0.461071 255 0 0
0.179116 0.024611 0.332783 255 0 0
0.005200 -0.119108 -0.444854 255 0 0
0.077347 0.129068 0.041189 255 0 0
0.181986 -0.089252 0.395260 255 0 0
0.080761 -0.121299 -0.001569 255 0 0
0.136335 0.057896 -0.127404 255 0 0
0.167096 0.050214 0.242110 255 0 0
0.044306 -0.116984 0.224523 255 0 0
-0.018384 -0.013959 -0.458711 255 0 0
0.178448 -0.001746 0.272300 255 0 0
-0.005017 0.121733 0.183516 255 0 0
-0.145880 0.047154 -0.143785 255 0 0
0.142854 0.092412 0.125599 255 0 0
-0.026958 0.002549 -0.405437 255 0 0
0.197177 0.000853 -0.322653 255 0 0
0.076414 -0.121923 0.161501 255 0 0
0.094318 -0.125289 -0.462746 255 0 0
-0.139960 0.029254 -0.174802 255 0 0
0.064508 -0.035110 -0.477853 255 0 0
0.182596 -0.072485 -0.058110 255 0 0
-0.153949 -0.044016 -0.451672 255 0 0
-0.071215 -0.117292 -0.368255 255 0 0
0.184837 0.014331 -0.030599 255 0 0
-0.178904 -0.119734 -0.206351 255 0 0
-0.063653 -0.009077 -0.425480 255 0 0
-0.104228 0.088471 0.311243 255 0 0
-0.073298 0.054218 -0.164029 255 0 0
-0.154776 0.062191 -0.000737 255 0 0
-0.036941 0.125236 0.173680 255 0 0
-0.182952 0.007273 -0.297255 255 0 0
-0.181092 0.016406 -0.005534 255 0 0
-0.064901 0.074298 -0.103552 255 0 0
-0.131799 0.072579 0.307590 255 0 0
-0.140808 0.096230 0.424406 255 0 0
0.172392 -0.120025 0.091825 255 0 0
0.048238 0.130128 0.034308 255 0 0
-0.067332 -0.109561 0.355866 255 0 0
-0.034640 -0.092204 -0.492068 255 0 0
0.097673 0.016253 0.457338 255 0 0
0.033341 0.096779 -0.081711 255 0 0
0.138523 -0.108879 0.403812 255 0 0
0.161933 0.018754 -0.265572 255 0 0
0.032092 -0.108573 0.417046 255 0 0
-0.014241 0.127646 0.070583 255 0 0
-0.081925 -0.111161 0.338487 255 0 0
0.009424 -0.041364 -0.494730 255 0 0
-0.129286 -0.051730 -0.465692 255 0 0
-0.004152 -0.108229 0.381230 255 0 0
0.165701 0.008062 0.394135 255 0 0
0.190824 -0.023640 0.181532 255 0 0
0.097215 0.029422 -0.279688 255 0 0
-0.086688 -0.117736 -0.160339 255 0 0
0.062441 -0.120735 0.237787 255 0 0
0.186025 -0.071678 0.157571 255 0 0
-0.145783 0.073538 0.134629 255 0 0
0.062471 -0.118020 0.240925 255 0 0
-0.160778 0.037479 -0.119406 255 0 0
-0.128653 0.097639 0.440283 255 0 0
-0.137551 0.050902 0.343219 255 0 0
-0.064522 -0.048057 -0.486785 255 0 0
-0.112365 0.019966 0.458383 255 0 0
-0.169029 0.035878 0.078483 255 0 0
-0.190331 -0.058915 -0.132979 255 0 0
-0.135475 0.105452 0.182169 255 0 0
0.033065 -0.105887 0.317661 255 0 0
0.185164 -0.027158 0.136561 255 0 0
0.154089 -0.009588 -0.320785 255 0 0
-0.010599 0.029351 -0.231525 255 0 0
0.031082 0.108751 0.474688 255 0 0
-0.030660 0.069242 0.368848 255 0 0
-0.148571 0.058364 0.287759 255 0 0
-0.073947 -0.109939 -0.214406 255 0 0
-0.188851 -0.116075 0.138405 255 0 0
0.023395 0.059431 0.442225 255 0 0
-0.180692 0.021462 0.228337 255 0 0
-0.172541 -0.082284 0.382121 255 0 0
0.079075 -0.120104 -0.259053 255 0 0
0.154234 -0.060059 0.452552 255 0 0
-0.120989 0.117444 0.045856 255 0 0
-0.078968 0.127151 0.083776 255 0 0
0.149670 0.077107 0.194306 255 0 0
0.153637 0.028516 0.437065 255 0 0
0.166237 -0.121603 -0.011311 255 0 0
-0.071131 -0.121505 -0.315856 255 0 0
0.136309 -0.117168 0.154330 255 0 0
-0.051457 -0.116092 0.090134 255 0 0
0.177620 -0.005850 0.363608 255 0 0
0.186908 -0.001202 0.350608 255 0 0
-0.063240 -0.016191 -0.449773 255 0 0
0.007742 0.105911 -0.063572 255 0 0
0.191194 -0.086492 -0.193012 255 0 0
0.179840 -0.115701 0.141393 255 0 0
-0.195717 -0.003236 0.285214 255 0 0
-0.110487 0.120905 0.013660 255 0 0
-0.125677 0.111421 0.063471 255 0 0
0.013052 -0.107459 0.473258 255 0 0
0.024485 -0.119340 -0.333272 255 0 0
0.132301 0.020587 -0.253369 255 0 0
-0.004453 -0.105519 0.384946 255 0 0
-0.092021 0.034945 -0.224722 255 0 0
0.105423 -0.120848 0.144425 255 0 0
-0.075023 -0.121105 0.059449 255 0 0
-0.183848 0.060675 -0.075770 255 0 0
0.104413 -0.110892 -0.132621 255 0 0
0.043052 -0.105489 0.384708 255 0 0
-0.194252 -0.016528 -0.045164 255 0 0
-0.143870 -0.010301 0.467027 255 0 0
-0.059261 0.090723 0.318555 255 0 0
-0.089233 0.132449 0.076215 255 0 0
0.157755 -0.073148 -0.394251 255 0 0
-0.064609 0.131989 0.126409 255 0 0
0.065018 0.102235 0.463234 255 0 0
-0.163324 0.027331 -0.172516 255 0 0
-0.182511 -0.118091 -0.191669 255 0 0
0.190253 -0.027013 -0.168680 255 0 0
0.071988 -0.114188 0.213635 255 0 0
0.082307 -0.126505 -0.466045 255 0 0
0.081529 0.121170 0.011080 255 0 0
-0.147543 0.081726 -0.012904 255 0 0
-0.206019 0.047179 -0.080409 255 0 0
-0.154535 0.028489 -0.168313 255 0 0
0.186736 -0.062696 -0.227642 255 0 0
-0.081328 -0.079620 0.467925 255 0 0
0.015087 0.031648 -0.303376 255 0 0
0.018942 -0.118261 0.415444 255 0 0
0.057870 0.095977 -0.071717 255 0 0
0.167310 0.033559 -0.066196 255 0 0
0.081462 -0.116464 0.039365 255 0 0
-0.190716 -0.006619 -0.249441 255 0 0
0.028001 -0.086848 0.466047 255 0 0
0.166017 0.007870 -0.265084 255 0 0
0.141544 -0.120485 0.141499 255 0 0
0.121373 -0.038603 0.363381 255 0 0
-0.156688 -0.120852 0.166629 255 0 0
0.122984 -0.120925 0.165482 255 0 0
-0.098629 0.102690 0.459697 255 0 0
-0.146771 -0.122185 0.000386 255 0 0
0.168113 -0.122790 -0.224460 255 0 0
-0.142238 0.091251 0.122729 255 0 0
0.164387 -0.138233 -0.432242 255 0 0
-0.103956 0.115357 -0.027965 255 0 0
0.161817 0.019547 -0.266095 255 0 0
-0.057285 0.070865 0.342424 255 0 0
-0.098377 -0.065811 -0.233760 255 0 0
0.031748 -0.084112 0.467448 255 0 0
0.133643 0.102664 0.212604 255 0 0
-0.190241 -0.052611 0.063482 255 0 0
-0.126026 -0.065421 -0.452851 255 0 0
-0.044826 -0.118336 -0.266663 255 0 0
-0.029969 -0.104043 0.441592 255 0 0
0.074594 0.065094 0.370220 255 0 0
-0.095050 -0.032822 -0.471743 255 0 0
-0.056655 -0.118390 -0.231353 255 0 0
0.052445 0.011380 -0.389340 255 0 0
-0.171741 0.030014 0.084006 255 0 0
0.086856 0.123520 -0.009013 255 0 0
0.075275 -0.118041 0.272983 255 0 0
0.065852 -0.105731 0.432060 255 0 0
-0.135890 0.054964 0.376839 255 0 0
-0.086037 -0.111639 -0.274298 255 0 0
-0.084577 -0.116617 0.245286 255 0 0
-0.071593 0.116016 -0.021019 255 0 0
0.114551 0.099645 0.456101 255 0 0
0.137725 -0.062327 -0.229028 255 0 0
-0.113623 -0.120717 0.031820 255 0 0
0.115195 -0.083574 -0.454951 255 0 0
0.185717 -0.003475 0.192304 255 0 0
0.054125 -0.122308 -0.286269 255 0 0
-0.011156 0.029678 -0.309576 255 0 0
-0.177857 -0.130696 -0.421507 255 0 0
0.005230 0.037799 -0.267598 255 0 0
0.116988 0.122334 0.166649 255 0 0
-0.175943 -0.023420 0.358092 255 0 0
-0.102512 -0.035157 -0.252185 255 0 0
-0.101253 -0.120908 0.192299 255 0 0
0.150803 -0.107483 0.420400 255 0 0
-0.187393 0.004881 -0.002352 255 0 0
0.000480 -0.111362 0.309592 255 0 0
0.194379 -0.049742 0.049394 255 0 0
0.001062 -0.023796 -0.071080 255 0 0
-0.100973 -0.120369 0.084271 255 0 0
0.070127 -0.109128 0.456936 255 0 0
-0.196540 -0.050897 0.209876 255 0 0
-0.075855 -0.114684 0.032855 255 0 0
-0.132461 0.100574 0.220208 255 0 0
0.125554 0.084908 0.261210 255 0 0
0.135301 0.029420 -0.215358 255 0 0
-0.003858 0.104897 0.457247 255 0 0
-0.162458 0.025117 -0.208811 255 0 0
-0.190539 -0.073058 0.127046 255 0 0
0.134038 0.030622 0.446980 255 0 0
0.087977 0.042426 -0.188920 255 0 0
0.044840 0.073232 -0.123824 255 0 0
0.180490 -0.006883 0.361283 255 0 0
0.180894 0.003984 -0.196202 255 0 0
-0.019842 0.102334 0.464621 255 0 0
-0.044676 -0.057455 0.491368 255 0 0
-0.140380 0.054265 -0.131117 255 0 0
-0.190440 -0.079844 -0.060786 255 0 0
-0.191146 0.007765 -0.315161 255 0 0
0.185431 -0.086744 -0.135914 255 0 0
0.034145 -0.106858 0.455062 255 0 0
-0.008123 -0.122373 -0.309048 255 0 0
-0.154684 0.059175 0.247179 255 0 0
-0.191489 -0.088812 0.012780 255 0 0
-0.041723 0.022803 -0.334247 255 0 0
-0.185753 -0.115728 -0.160429 255 0 0
-0.159491 -0.120638 0.153246 255 0 0
0.136380 0.100901 0.090616 255 0 0
0.135047 -0.013097 -0.373989 255 0 0
-0.172651 0.025393 -0.128966 255 0 0
-0.152354 -0.084727 -0.441430 255 0 0
0.100787 -0.120335 0.126144 255 0 0
0.142455 0.062968 0.297563 255 0 0
-0.085598 -0.118571 -0.127160 255 0 0
0.121041 -0.122336 -0.197339 255 0 0
0.151842 -0.007528 0.440904 255 0 0
-0.134006 -0.128726 -0.441417 255 0 0
0.121566 -0.118859 -0.018867 255 0 0
-0.176114 -0.026071 -0.378328 255 0 0
0.145994 0.085254 0.135286 255 0 0
-0.026845 -0.115070 0.145379 255 0 0
0.169588 0.096208 0.460505 255 0 0
-0.105715 0.022995 -0.283525 255 0 0
-0.007905 -0.127842 -0.487102 255 0 0
-0.136480 0.025674 0.441287 255 0 0
-0.154420 -0.119883 -0.066534 255 0 0
0.088708 -0.480060 0.226803 255 0 0
-0.130742 0.075151 0.302484 255 0 0
-0.069233 0.124498 0.199580 255 0 0
-0.142084 -0.120551 0.046472 255 0 0
0.023932 0.037927 -0.250997 255 0 0
0.036361 -0.111874 -0.155612 255 0 0
-0.036095 -0.123249 -0.479672 255 0 0
0.190801 -0.073898 -0.077671 255 0 0
0.108831 -0.081875 0.238607 255 0 0
-0.166035 0.049140 0.164127 255 0 0
-0.015417 0.043804 -0.189491 255 0 0
0.000247 -0.118613 -0.109749 255 0 0
0.076531 0.008553 -0.396140 255 0 0
0.019925 0.105596 0.280479 255 0 0
0.013947 -0.121231 -0.205735 255 0 0
-0.055073 0.083732 0.336575 255 0 0
0.061073 0.129521 0.030761 255 0 0
0.149564 0.084126 0.149574 255 0 0
-0.153187 0.045325 -0.121301 255 0 0
0.063142 0.121241 0.218497 255 0 0
0.442444 -0.241866 -0.479821 255 0 0
0.158056 -0.014333 0.438627 255 0 0
0.141387 -0.058777 -0.230881 255 0 0
0.090859 -0.115143 -0.170318 255 0 0
0.069771 -0.037742 0.477187 255 0 0
0.138189 -0.010655 -0.414526 255 0 0
0.132607 0.055557 0.352886 255 0 0
-0.065276 0.020825 -0.322687 255 0 0
0.187541 -0.086509 0.188332 255 0 0
0.054169 0.025348 -0.227215 255 0 0
-0.123787 -0.100330 -0.125752 255 0 0
-0.010927 0.104005 0.460432 255 0 0
0.091053 0.024120 -0.327094 255 0 0
-0.077894 -0.120005 0.185975 255 0 0
-0.188471 -0.068725 -0.227450 255 0 0
-0.063667 0.033729 -0.264181 255 0 0
0.174641 0.038803 0.172612 255 0 0
0.131822 0.045431 -0.143659 255 0 0
0.056156 0.013408 0.467727 255 0 0
-0.035816 -0.110932 0.288381 255 0 0
0.026362 0.064859 0.378475 255 0 0
0.108993 -0.077681 -0.273251 255 0 0
0.002057 -0.110563 0.321166 255 0 0
0.132277 0.055572 0.369267 255 0 0
-0.189846 -0.006394 -0.116478 255 0 0
0.020670 -0.101527 0.440657 255 0 0
-0.042842 -0.015357 0.494585 255 0 0
0.178388 -0.042871 0.218486 255 0 0
0.064659 0.030441 -0.265074 255 0 0
0.143280 -0.119768 0.111515 255 0 0
0.007417 0.131517 0.095474 255 0 0
0.089231 0.030638 -0.291880 255 0 0
-0.062060 0.080585 -0.103338 255 0 0
0.111400 -0.122212 -0.092334 255 0 0
0.030763 -0.121159 -0.104432 255 0 0
0.107708 -0.122306 0.060215 255 0 0
-0.192382 0.059086 -0.075699 255 0 0
0.165624 0.050765 0.191691 255 0 0
-0.016208 0.039327 -0.231212 255 0 0
0.180954 -0.122081 -0.137568 255 0 0
0.133163 0.106612 0.170666 255 0 0
0.165988 -0.119605 -0.415720 255 0 0
0.192004 -0.044860 0.077162 255 0 0
-0.004211 0.098668 -0.067485 255 0 0
-0.039964 -0.103441 0.475717 255 0 0
0.013097 -0.121814 0.177231 255 0 0
0.061013 0.114683 -0.008902 255 0 0
0.162108 -0.008256 0.290992 255 0 0
0.145485 -0.052803 -0.389849 255 0 0
0.155008 -0.117558 -0.137132 255 0 0
-0.087671 -0.121924 0.028147 255 0 0
-0.005613 -0.117991 0.112570 255 0 0
-0.187554 -0.019074 -0.150140 255 0 0
0.067633 0.101067 0.460031 255 0 0
-0.087591 0.060253 0.426787 255 0 0
-0.149490 -0.119131 -0.005008 255 0 0
-0.142492 0.057006 0.368405 255 0 0
0.032182 0.025111 -0.280392 255 0 0
-0.002826 0.131066 0.134781 255 0 0
0.186254 -0.115523 0.184717 255 0 0
0.194820 -0.103186 0.138914 255 0 0
0.017487 -0.119995 -0.142354 255 0 0
0.080776 -0.117135 -0.279449 255 0 0
-0.071086 0.118681 -0.009770 255 0 0
-0.176189 -0.121338 -0.010360 255 0 0
-0.024641 -0.133734 -0.469318 255 0 0
-0.091021 0.122725 0.042591 255 0 0
0.038447 0.130972 0.081100 255 0 0
-0.009175 -0.043508 0.490028 255 0 0
-0.102804 0.107081 0.471624 255 0 0
0.124426 0.026419 -0.262319 255 0 0
-0.165028 0.048487 0.210472 255 0 0
-0.071918 0.008673 0.126283 255 0 0
-0.002604 0.027479 -0.290732 255 0 0
0.045658 -0.064355 0.485930 255 0 0
-0.123574 -0.022970 0.214094 255 0 0
0.177033 -0.022878 0.410659 255 0 0
0.184761 -0.009725 0.211388 255 0 0
0.109652 0.128680 0.126119 255 0 0
-0.035826 0.129411 0.079924 255 0 0
-0.001939 0.019237 -0.323311 255 0 0
-0.020533 0.113249 -0.032810 255 0 0
-0.041940 -0.005799 0.482639 255 0 0
0.143439 -0.116449 0.154760 255 0 0
0.172324 0.025522 -0.151356 255 0 0
-0.294014 0.092028 -0.407308 0 255 0
0.039035 -0.133596 -0.003962 0 255 0
-0.181248 -0.072050 0.375641 0 255 0
-0.007409 0.014437 -0.418284 0 255 0
0.055185 -0.492686 -0.102611 0 255 0
0.161090 0.048463 -0.054482 0 255 0
0.059065 0.109062 0.462988 0 255 0
-0.006614 0.099323 0.434132 0 255 0
0.084704 -0.126548 -0.359133 0 255 0
0.086886 -0.041771 -0.485624 0 255 0
-0.154932 0.009002 0.444451 0 255 0
0.083581 0.110473 0.266974 0 255 0
0.471430 -0.436452 0.165291 0 255 0
0.230902 0.125261 -0.045036 0 255 0
0.131265 0.103990 0.461349 0 255 0
0.016872 -0.130089 -0.235813 0 255 0
-0.149452 0.084589 0.000237 0 255 0
-0.076916 0.046848 0.469023 0 255 0
-0.142992 0.098441 -0.030261 0 255 0
-0.008011 -0.117492 0.298336 0 255 0
0.119989 0.104235 -0.050553 0 255 0
0.167576 0.030579 -0.162135 0 255 0
0.153174 -0.002909 -0.426010 0 255 0
-0.128659 0.036512 -0.263591 0 255 0
0.074688 0.129394 -0.002045 0 255 0
0.032629 0.058078 -0.167253 0 255 0
0.193099 -0.092431 -0.188810 0 255 0
0.107826 -0.097470 -0.364698 0 255 0
-0.015485 0.075728 0.365109 0 255 0
-0.072259 0.088786 0.342422 0 255 0
0.094018 -0.125445 -0.204576 0 255 0
-0.096310 0.019611 -0.365416 0 255 0
-0.173490 -0.063072 0.367875 0 255 0
0.241654 -0.129266 0.255465 0 255 0
-0.045118 -0.093782 0.478610 0 255 0
0.242872 -0.150659 -0.160914 0 255 0
-0.073914 0.114223 0.478060 0 255 0
0.038691 0.133076 0.141718 0 255 0
0.438687 0.065297 0.194044 0 255 0
0.129405 -0.002606 0.473906 0 255 0
0.004451 0.096076 0.325709 0 255 0
0.185233 0.002797 -0.249879 0 255 0
0.168714 0.049054 -0.032306 0 255 0
0.117967 0.063386 -0.149838 0 255 0
-0.200423 -0.054871 0.025381 0 255 0
0.083385 -0.128432 0.106549 0 255 0
0.052572 -0.119193 0.284584 0 255 0
-0.056209 0.001009 -0.436134 0 255 0
0.042114 0.039679 -0.204787 0 255 0
-0.156508 0.061419 0.247012 0 255 0
0.081574 -0.126558 0.074858 0 255 0
-0.068444 -0.119321 0.368316 0 255 0
0.193322 -0.436539 -0.009504 0 255 0
-0.042382 -0.344443 -0.210379 0 255 0
-0.027681 0.044983 -0.231254 0 255 0
-0.138258 -0.011974 0.259477 0 255 0
-0.045100 -0.123229 -0.304183 0 255 0
0.162889 -0.126183 -0.139939 0 255 0
-0.115502 -0.103518 0.334885 0 255 0
-0.310086 0.175229 0.436571 0 255 0
0.447099 0.173923 0.313151 0 255 0
-0.166637 -0.120630 -0.397149 0 255 0
0.074938 0.014893 -0.389355 0 255 0
0.057480 0.124423 0.240327 0 255 0
0.129765 -0.017380 0.267215 0 255 0
0.072398 0.138868 0.053450 0 255 0
-0.127670 -0.123926 -0.456509 0 255 0
-0.108506 -0.116643 0.392567 0 255 0
0.106930 0.007754 0.458856 0 255 0
0.040719 -0.113403 0.407563 0 255 0
-0.132801 -0.010911 0.268991 0 255 0
0.163187 0.064523 0.113856 0 255 0
-0.097227 -0.119804 0.326899 0 255 0
0.328594 0.418729 -0.090950 0 255 0
-0.128247 -0.125013 -0.027125 0 255 0
0.126442 0.037122 -0.223627 0 255 0
0.166520 -0.123770 -0.160324 0 255 0
0.118467 -0.106771 0.367849 0 255 0
0.066338 0.033960 -0.338682 0 255 0
-0.084337 -0.125284 -0.198198 0 255 0
0.143076 -0.125277 0.063600 0 255 0
0.071591 0.132985 0.179381 0 255 0
0.170634 -0.126844 0.121257 0 255 0
-0.102324 0.035421 -0.263033 0 255 0
-0.202775 -0.036919 0.056572 0 255 0
-0.079020 0.084988 0.331222 0 255 0
-0.013825 0.475090 -0.245237 0 255 0
0.117222 -0.087377 0.275778 0 255 0
-0.075078 -0.125541 -0.056995 0 255 0
0.150129 -0.086948 -0.434467 0 255 0
-0.341963 0.105227 0.338787 0 255 0
-0.196573 -0.063737 0.166917 0 255 0
0.060649 -0.126666 -0.299173 0 255 0
-0.149943 0.057544 0.364669 0 255 0
-0.069655 0.003503 -0.418660 0 255 0
-0.154498 0.044843 0.430309 0 255 0
-0.194001 -0.075890 0.100633 0 255 0
0.171739 -0.124854 -0.026208 0 255 0
-0.150013 0.079696 -0.060510 0 255 0
-0.127585 -0.123992 0.030623 0 255 0
0.216483 -0.254397 0.402255 0 255 0
-0.152681 -0.122891 -0.153742 0 255 0
0.014433 -0.096197 0.479713 0 255 0
-0.084105 -0.120801 0.246173 0 255 0
0.061511 -0.126261 -0.245030 0 255 0
0.096072 0.079345 -0.125178 0 255 0
0.345907 0.022691 -0.122391 0 255 0
-0.467227 -0.285253 -0.153151 0 255 0
0.070042 0.104650 0.423607 0 255 0
0.123751 -0.010749 0.305742 0 255 0
0.445404 0.080224 0.024388 0 255 0
-0.114294 -0.029099 -0.358009 0 255 0
0.487688 0.372442 -0.421548 0 255 0
0.173763 0.049586 0.282800 0 255 0
0.030551 0.133063 -0.017974 0 255 0
-0.009724 0.035870 0.470399 0 255 0
-0.023621 0.176800 -0.308516 0 255 0
-0.097307 0.075738 0.348764 0 255 0
0.165144 0.020214 -0.339455 0 255 0
0.030187 0.071713 0.393105 0 255 0
0.105283 -0.042894 -0.479060 0 255 0
-0.200509 -0.108242 -0.091170 0 255 0
-0.213066 0.064021 -0.074736 0 255 0
-0.083948 -0.126948 -0.171872 0 255 0
0.169079 0.112481 0.469955 0 255 0
0.195584 -0.031308 0.375809 0 255 0
-0.054434 -0.132220 -0.150369 0 255 0
-0.148899 0.063619 0.291255 0 255 0
-0.384899 -0.359350 0.274294 0 255 0
0.182418 0.030540 0.230152 0 255 0
-0.195702 -0.091159 0.113196 0 255 0
-0.092753 -0.116230 0.320336 0 255 0
-0.052562 -0.126125 0.156316 0 255 0
0.039600 -0.123460 0.217936 0 255 0
-0.138588 0.044871 -0.177641 0 255 0
0.105974 -0.124014 -0.072861 0 255 0
0.103431 -0.132735 0.057796 0 255 0
0.083659 -0.134962 -0.128339 0 255 0
0.000431 0.042425 -0.241070 0 255 0
0.187473 0.011488 0.367781 0 255 0
0.099146 -0.124530 0.336198 0 255 0
0.054308 0.075226 0.375840 0 255 0
-0.189060 -0.028406 0.244774 0 255 0
0.175412 0.022435 -0.331127 0 255 0
-0.024896 0.106249 0.286844 0 255 0
0.009082 -0.262826 0.458643 0 255 0
0.041243 -0.125526 0.149335 0 255 0
0.180510 -0.068846 0.217989 0 255 0
-0.355264 0.184261 0.304497 0 255 0
0.063727 0.020734 -0.367249 0 255 0
0.061225 0.161461 0.297067 0 255 0
0.128298 -0.012466 -0.439357 0 255 0
-0.092344 0.132408 0.008960 0 255 0
0.195716 -0.068088 -0.072097 0 255 0
0.106327 -0.127578 0.059674 0 255 0
-0.029568 0.009836 -0.412428 0 255 0
-0.207367 -0.024699 -0.361005 0 255 0
-0.044841 0.127908 0.191501 0 255 0
-0.075579 0.114511 -0.058066 0 255 0
-0.168611 0.016048 -0.378168 0 255 0
0.165883 0.056967 -0.002193 0 255 0
-0.007719 0.064341 0.390716 0 255 0
-0.027039 -0.115074 0.456878 0 255 0
0.159683 0.074803 0.142954 0 255 0
0.043681 0.125860 0.211287 0 255 0
0.112260 -0.027402 -0.332967 0 255 0
0.371887 0.017552 -0.413644 0 255 0
0.160793 -0.014723 0.314257 0 255 0
-0.012359 0.060418 0.470238 0 255 0
-0.057125 0.064533 0.412983 0 255 0
-0.099779 -0.123608 0.322170 0 255 0
0.362379 0.252984 0.344998 0 255 0
-0.173465 -0.127400 0.160556 0 255 0
0.085744 0.128832 0.015712 0 255 0
-0.187413 0.030613 0.057681 0 255 0
0.092325 0.018366 -0.364031 0 255 0
-0.088567 0.132044 0.193170 0 255 0
0.274300 0.143658 -0.070779 0 255 0
-0.136698 -0.131070 -0.092056 0 255 0
0.120961 -0.127591 -0.159021 0 255 0
0.110598 0.131968 0.088746 0 255 0
0.156143 -0.109030 0.440043 0 255 0
-0.480491 0.012022 -0.118151 0 255 0
-0.023036 -0.115404 0.342268 0 255 0
-0.416971 0.174247 -0.368247 0 255 0
0.071426 0.004383 0.470671 0 255 0
-0.172519 0.051515 0.159635 0 255 0
0.193646 0.008091 0.326293 0 255 0
0.160785 -0.116915 0.396387 0 255 0
0.206268 -0.008495 0.321330 0 255 0
0.464321 0.409352 0.259471 0 255 0
-0.105511 0.131622 0.032377 0 255 0
-0.087922 -0.127771 -0.212227 0 255 0
-0.010271 0.120772 0.251842 0 255 0
0.093384 0.132931 0.057964 0 255 0
0.002909 -0.124556 0.273522 0 255 0
-0.139434 -0.099703 0.457655 0 255 0
-0.157228 0.030437 0.437390 0 255 0
0.066305 0.066063 -0.149049 0 255 0
0.111115 0.061545 0.370784 0 255 0
0.153934 0.074230 0.035944 0 255 0
-0.030131 0.083305 0.344348 0 255 0
0.049550 0.094936 0.454855 0 255 0
-0.186970 0.075145 0.464773 0 255 0
-0.146615 0.080063 -0.069902 0 255 0
0.178814 -0.033835 -0.435726 0 255 0
0.025267 -0.123772 -0.356923 0 255 0
0.172241 0.251404 0.004496 0 255 0
-0.002374 0.023861 -0.407021 0 255 0
-0.090073 0.128344 -0.005485 0 255 0
0.138714 -0.125610 0.080642 0 255 0
0.088494 -0.076289 0.481114 0 255 0
0.147263 0.101740 0.155161 0 255 0
0.190975 0.023238 -0.060621 0 255 0
-0.054665 -0.069643 0.493362 0 255 0
-0.197585 -0.105668 0.131776 0 255 0
0.065355 -0.120166 0.443176 0 255 0
-0.343358 0.121603 0.388736 0 255 0
0.348726 -0.300294 0.298156 0 255 0
-0.113504 -0.128002 -0.012803 0 255 0
-0.199569 -0.043744 0.045782 0 255 0
-0.287152 0.241414 0.413274 0 255 0
0.135112 -0.128017 -0.005844 0 255 0
0.179184 0.022074 -0.122456 0 255 0
0.192955 -0.121682 -0.007361 0 255 0
-0.196691 -0.033459 0.187294 0 255 0
-0.199761 -0.017545 0.281406 0 255 0
0.026863 -0.069086 0.497621 0 255 0
0.197486 -0.059337 0.003859 0 255 0
0.024227 0.140632 0.065767 0 255 0
-0.158181 0.477383 -0.326110 0 255 0
-0.162184 0.013892 -0.362444 0 255 0
-0.125482 0.064932 0.342862 0 255 0
0.003955 0.025491 0.474922 0 255 0
-0.039466 0.079419 0.368524 0 255 0
0.036795 0.122433 0.408397 0 255 0
0.148775 0.062147 -0.113253 0 255 0
0.189347 -0.016987 -0.268897 0 255 0
-0.267004 -0.011556 -0.114990 0 255 0
-0.002167 0.146511 0.083839 0 255 0
0.158848 0.019485 -0.311015 0 255 0
-0.057755 -0.102901 -0.462300 0 255 0
-0.128302 0.068676 0.341335 0 255 0
0.036374 -0.001655 -0.444780 0 255 0
-0.041938 0.133231 0.161339 0 255 0
-0.115030 -0.125561 0.188792 0 255 0
0.200525 -0.320161 0.303700 0 255 0
0.110717 0.073802 0.451038 0 255 0
-0.111074 0.289080 -0.444943 0 255 0
0.156479 -0.127473 0.206586 0 255 0
-0.129068 0.121273 0.189210 0 255 0
-0.171521 0.093591 0.461542 0 255 0
0.194945 -0.024359 0.099741 0 255 0
-0.204891 -0.230414 -0.002132 0 255 0
0.079023 0.115244 0.482612 0 255 0
-0.149497 -0.125033 -0.127870 0 255 0
0.164050 0.057241 0.245139 0 255 0
-0.424675 0.126713 0.438170 0 255 0
0.074448 0.129305 -0.008956 0 255 0
-0.189211 -0.120094 -0.170988 0 255 0
-0.476347 -0.255331 -0.135981 0 255 0
0.148907 0.061000 0.371997 0 255 0
0.186125 0.019511 0.306166 0 255 0
-0.079366 0.036668 -0.284103 0 255 0
-0.086425 -0.125381 0.020375 0 255 0
-0.144564 0.096438 0.230455 0 255 0
-0.249093 -0.243537 -0.299237 0 255 0
-0.120324 0.065885 0.349382 0 255 0
-0.009562 0.095431 0.451623 0 255 0
0.000822 -0.127519 -0.269840 0 255 0
0.171927 -0.027892 0.433097 0 255 0
0.338670 0.316231 0.370025 0 255 0
0.166450 0.019313 -0.367009 0 255 0
0.062987 0.003211 -0.427171 0 255 0
0.032302 0.134370 0.082573 0 255 0
0.150065 0.083851 0.229530 0 255 0
0.163360 -0.028873 -0.374480 0 255 0
-0.086106 -0.112955 0.438618 0 255 0
0.081704 0.130116 0.158815 0 255 0
0.080622 -0.131833 0.032707 0 255 0
-0.024307 -0.124881 0.480133 0 255 0
-0.010859 -0.123132 0.266558 0 255 0
0.196638 -0.108104 -0.038035 0 255 0
0.000425 0.131259 0.188840 0 255 0
0.169418 -0.001564 -0.400948 0 255 0
0.185253 -0.126892 0.017406 0 255 0
-0.018946 0.044994 -0.238924 0 255 0
-0.179252 -0.125069 -0.046749 0 255 0
-0.122743 -0.124484 0.026978 0 255 0
0.085957 0.125965 0.208669 0 255 0
0.084318 -0.062518 -0.488143 0 255 0
0.182847 0.029117 0.241774 0 255 0
-0.150481 0.072211 0.253119 0 255 0
-0.090778 0.135089 0.112003 0 255 0
-0.019266 0.014121 -0.391072 0 255 0
-0.086097 -0.122915 -0.257815 0 255 0
-0.100302 0.031357 0.461468 0 255 0
-0.000297 -0.128862 -0.142553 0 255 0
-0.131776 0.102724 0.257114 0 255 0
0.181753 0.032938 0.087331 0 255 0
0.024563 -0.129623 0.288245 0 255 0
0.152453 0.057178 0.424105 0 255 0
-0.199581 -0.043154 -0.009631 0 255 0
0.427050 0.246178 -0.256572 0 255 0
0.155417 -0.038772 0.232043 0 255 0
0.011085 -0.089737 -0.486911 0 255 0
0.468306 0.318579 0.488434 0 255 0
-0.126906 -0.087251 0.445024 0 255 0
-0.087272 -0.120065 0.324528 0 255 0
-0.074648 -0.123864 -0.347071 0 255 0
-0.276399 -0.189006 -0.066574 0 255 0
-0.224717 0.054523 -0.060013 0 255 0
-0.038585 0.063382 0.441521 0 255 0
-0.189597 -0.118184 0.087604 0 255 0
0.038084 -0.127588 -0.380555 0 255 0
0.188921 0.015373 0.318416 0 255 0
-0.126272 0.038208 -0.276740 0 255 0
-0.000481 0.157718 -0.485874 0 255 0
0.190078 0.014051 0.140244 0 255 0
-0.064375 -0.125534 0.192403 0 255 0
-0.037244 0.080941 0.348429 0 255 0
-0.191808 -0.018417 -0.349713 0 255 0
0.177542 -0.020105 -0.308993 0 255 0
-0.012547 -0.030437 -0.491996 0 255 0
-0.019899 -0.071698 0.492603 0 255 0
-0.058962 -0.127826 0.219647 0 255 0
-0.105515 -0.114547 0.352244 0 255 0
0.195218 -0.000562 0.196172 0 255 0
-0.392483 -0.082061 0.127155 0 255 0
-0.074071 0.113746 -0.041259 0 255 0
0.026038 0.114960 -0.049997 0 255 0
0.196026 -0.051933 0.073961 0 255 0
-0.193810 0.014298 0.213393 0 255 0
-0.064313 0.119016 -0.042572 0 255 0
0.043164 -0.097550 0.468287 0 255 0
-0.166548 -0.128454 0.178948 0 255 0
-0.065118 0.129052 0.188113 0 255 0
-0.102106 0.089414 0.442662 0 255 0
0.168575 0.011235 0.419334 0 255 0
0.036876 0.107662 0.483019 0 255 0
0.000509 0.124872 -0.041055 0 255 0
-0.196694 -0.054217 0.037288 0 255 0
-0.491173 0.475819 -0.212212 0 255 0
0.126715 0.122203 0.045812 0 255 0
0.174052 0.042517 0.064968 0 255 0
-0.186012 -0.129094 -0.099008 0 255 0
0.143725 -0.111594 0.441866 0 255 0
0.184145 -0.072641 0.427501 0 255 0
0.102521 0.059990 0.420752 0 255 0
0.082551 0.136527 0.060875 0 255 0
0.039249 0.019203 -0.402210 0 255 0
-0.172609 -0.039982 0.444483 0 255 0
-0.026656 -0.051164 0.498704 0 255 0
0.179438 0.050706 0.017970 0 255 0
0.031922 -0.001400 -0.436072 0 255 0
-0.119236 -0.073691 -0.256688 0 255 0
0.159806 -0.129433 -0.189171 0 255 0
-0.316288 -0.344824 0.058625 0 255 0
0.179670 0.035357 0.057966 0 255 0
-0.153162 -0.130579 -0.164846 0 255 0
-0.234174 0.141380 -0.109005 0 255 0
0.060769 -0.119159 0.317345 0 255 0
0.102204 0.106817 0.444271 0 255 0
-0.107900 0.041937 -0.177719 0 255 0
0.191807 -0.120482 -0.161636 0 255 0
-0.074888 -0.114897 0.341106 0 255 0
-0.089165 0.127304 -0.044111 0 255 0
0.214492 -0.336126 -0.066617 0 255 0
0.126295 0.121820 0.119685 0 255 0
-0.060181 0.037897 -0.215123 0 255 0
0.315371 -0.259663 -0.152825 0 255 0
0.064220 0.098127 0.479219 0 255 0
-0.136121 0.039063 -0.192391 0 255 0
0.116653 -0.368118 0.277366 0 255 0
-0.123817 -0.024031 0.338881 0 255 0
-0.201503 -0.015188 0.355170 0 255 0
-0.119316 -0.041408 -0.471013 0 255 0
-0.064960 0.038373 -0.270410 0 255 0
-0.170806 0.035880 -0.132946 0 255 0
0.157205 -0.014247 0.255588 0 255 0
-0.139431 -0.134068 0.055198 0 255 0
-0.085921 -0.131005 -0.451176 0 255 0
-0.096466 -0.313826 0.062437 0 255 0
-0.183766 -0.037603 0.353075 0 255 0
0.236106 0.146103 -0.486855 0 255 0
-0.134141 0.063637 0.333364 0 255 0
-0.202396 0.058582 -0.163908 0 255 0
0.165288 -0.125517 -0.018368 0 255 0
0.134086 -0.123144 0.056735 0 255 0
0.198490 -0.118249 0.035622 0 255 0
-0.088926 0.133336 0.137480 0 255 0
-0.183880 0.025887 -0.098419 0 255 0
0.102014 -0.001517 0.472671 0 255 0
-0.195459 -0.068359 0.394891 0 255 0
-0.171172 0.022161 -0.296496 0 255 0
-0.096967 -0.032610 -0.474949 0 255 0
-0.186900 0.031843 0.275186 0 255 0
0.046963 -0.132875 -0.399122 0 255 0
0.041817 0.014140 0.473214 0 255 0
-0.143645 0.111573 0.009966 0 255 0
-0.045681 0.037710 -0.255162 0 255 0
-0.182850 -0.047816 -0.424502 0 255 0
0.155957 0.074056 0.179136 0 255 0
0.467566 -0.177923 0.254151 0 255 0
-0.088432 0.007160 -0.417917 0 255 0
-0.201061 -0.026582 -0.136424 0 255 0
-0.003935 0.110580 0.300397 0 255 0
0.201999 -0.033936 0.095984 0 255 0
-0.096838 -0.126522 0.060560 0 255 0
0.194633 -0.050050 0.223037 0 255 0
0.095385 -0.112911 0.367839 0 255 0
0.111143 -0.108004 -0.242139 0 255 0
-0.035967 -0.229320 0.069193 0 255 0
0.199903 -0.121224 0.045217 0 255 0
-0.165939 0.049582 -0.025911 0 255 0
-0.095152 0.034553 -0.284202 0 255 0
-0.019771 -0.066426 0.496865 0 255 0
0.059609 0.011888 -0.412645 0 255 0
0.169611 -0.126436 0.200683 0 255 0
0.198944 -0.088745 0.027961 0 255 0
-0.190969 0.002377 -0.097495 0 255 0
0.197660 -0.090074 -0.010176 0 255 0
0.158580 0.066287 -0.020013 0 255 0
-0.080637 -0.119230 0.435969 0 255 0
0.096595 -0.014165 0.496501 0 255 0
0.094984 0.082089 -0.120931 0 255 0
-0.395194 0.202663 -0.216751 0 255 0
0.115862 0.125857 0.164545 0 255 0
-0.002829 -0.129129 -0.373389 0 255 0
-0.149710 -0.016891 0.473925 0 255 0
0.023253 0.044321 -0.222230 0 255 0
0.133110 -0.109795 0.211390 0 255 0
-0.183375 0.016468 -0.169729 0 255 0
-0.134059 -0.076584 0.459735 0 255 0
0.007874 -0.100814 0.484893 0 255 0
0.066078 0.142084 0.079165 0 255 0
0.034746 0.119742 0.246957 0 255 0
0.202702 -0.036561 0.212869 0 255 0
-0.427490 -0.193615 0.086486 0 255 0
0.036545 -0.131414 -0.489739 0 255 0
0.121646 0.052530 -0.325069 0 255 0
-0.112742 -0.111033 0.357553 0 255 0
-0.204320 -0.010596 -0.070905 0 255 0
0.010786 0.047043 -0.252042 0 255 0
-0.039223 0.068061 -0.148546 0 255 0
-0.003639 0.137419 0.106784 0 255 0
0.239150 -0.030664 -0.392809 0 255 0
0.357330 -0.107925 -0.000237 0 255 0
-0.030660 0.121154 0.470837 0 255 0
0.032138 0.008267 -0.421368 0 255 0
-0.088443 -0.126845 0.228624 0 255 0
0.465652 0.385665 0.106562 0 255 0
-0.178682 0.032004 -0.014661 0 255 0
-0.004605 -0.127814 0.028968 0 255 0
0.087717 -0.025696 -0.473513 0 255 0
-0.201069 -0.063134 -0.405469 0 255 0
0.084477 -0.127713 -0.056059 0 255 0
-0.194420 -0.067309 -0.137361 0 255 0
0.070053 -0.128205 -0.063569 0 255 0
-0.177410 0.066174 -0.080950 0 255 0
0.019974 0.112656 0.487985 0 255 0
-0.067181 0.039286 -0.221092 0 255 0
0.035646 0.136783 0.092157 0 255 0
0.178801 0.004684 0.393799 0 255 0
-0.150438 0.088664 0.091860 0 255 0
0.052905 -0.126041 -0.102563 0 255 0
0.112168 -0.080663 -0.369179 0 255 0
-0.003538 0.096619 0.316310 0 255 0
-0.018871 0.042395 -0.258790 0 255 0
-0.168965 0.059748 0.239061 0 255 0
0.169260 -0.000232 -0.400624 0 255 0
-0.190539 0.019865 -0.065901 0 255 0
-0.125918 -0.128202 0.012434 0 255 0
0.060019 0.131579 0.195061 0 255 0
0.053104 -0.128338 -0.326985 0 255 0
-0.142420 -0.023596 0.231317 0 255 0
-0.110852 0.389071 -0.281649 0 255 0
0.054795 0.137462 0.059233 0 255 0
-0.435278 -0.259228 -0.060864 0 255 0
0.183092 -0.123055 0.115998 0 255 0
-0.150256 0.081753 -0.003404 0 255 0
-0.043048 0.117108 0.272334 0 255 0
-0.188948 -0.127752 -0.153054 0 255 0
0.155471 -0.114007 0.404551 0 255 0
-0.047826 -0.114811 0.444047 0 255 0
0.098126 0.116351 0.478681 0 255 0
-0.110239 0.096063 0.451205 0 255 0
0.094731 -0.130140 0.198014 0 255 0
0.117884 -0.111492 0.268959 0 255 0
0.199114 -0.060670 -0.191829 0 255 0
-0.083321 -0.214449 0.497869 0 255 0
-0.097221 0.123291 0.473489 0 255 0
-0.057371 -0.125863 0.236441 0 255 0
-0.071634 -0.125526 0.103953 0 255 0
-0.120261 0.024576 -0.321017 0 255 0
-0.286341 -0.032160 0.021414 0 255 0
-0.125573 -0.130322 -0.193200 0 255 0
-0.075791 -0.123259 0.209513 0 255 0
0.073379 0.123880 0.210324 0 255 0
0.147171 0.090730 -0.040742 0 255 0
0.148003 0.059084 0.352981 0 255 0
0.013763 -0.099132 -0.495783 0 255 0
0.353559 0.272876 -0.022492 0 255 0
0.296251 -0.027207 -0.491872 0 255 0
0.294725 0.391826 0.462125 0 255 0
-0.252090 0.390086 0.429436 0 255 0
0.201535 -0.079996 -0.079973 0 255 0
0.126909 0.118079 0.195018 0 255 0
0.267683 0.421401 -0.256608 0 255 0
-0.117892 0.130553 0.069090 0 255 0
0.006072 -0.133221 -0.098331 0 255 0
0.026688 0.108971 0.484720 0 255 0
0.034689 0.132255 0.154567 0 255 0
-0.037718 0.089433 -0.111322 0 255 0
-0.121509 -0.098143 -0.383912 0 255 0
-0.231462 -0.102156 -0.335582 0 255 0
-0.174421 -0.126803 -0.418638 0 255 0
-0.213951 0.309906 0.148784 0 255 0
0.137951 -0.016050 0.258432 0 255 0
-0.200740 -0.039829 -0.084437 0 255 0
-0.129665 -0.111520 0.418481 0 255 0
0.123216 0.082269 -0.094780 0 255 0
-0.195818 0.071647 0.294072 0 255 0
0.205649 -0.029777 -0.204341 0 255 0
-0.160004 0.073098 -0.070211 0 255 0
-0.177055 -0.123922 0.182033 0 255 0
0.020569 -0.124252 0.159362 0 255 0
0.160869 -0.105545 -0.440504 0 255 0
0.070610 -0.043861 -0.496481 0 255 0
0.133821 0.036382 -0.214446 0 255 0
0.019639 0.067751 -0.148053 0 255 0
-0.124515 -0.461464 -0.041500 0 255 0
-0.071468 -0.105975 -0.472617 0 255 0
-0.049631 0.115331 0.484811 0 255 0
0.446493 0.111184 0.332875 0 255 0
-0.109558 0.134911 0.054663 0 255 0
0.341825 0.037886 0.279727 0 255 0
-0.150301 -0.134174 -0.202105 0 255 0
0.196656 -0.078197 -0.396542 0 255 0
-0.056289 0.043606 0.471586 0 255 0
-0.060883 0.067645 0.422816 0 255 0
0.083960 -0.013005 -0.454754 0 255 0
-0.094639 -0.031096 -0.477895 0 255 0
-0.007469 -0.333959 0.061785 0 255 0
0.202110 0.068593 -0.077238 0 255 0
-0.198712 -0.018719 -0.112188 0 255 0
-0.307220 0.243118 -0.110083 0 255 0
-0.085631 0.003762 -0.420692 0 255 0
0.169496 0.103132 0.465258 0 255 0
0.188851 -0.128135 -0.030006 0 255 0
0.180778 0.039502 -0.018626 0 255 0
0.092813 -0.015029 -0.457335 0 255 0
0.081750 0.049547 0.469653 0 255 0
-0.416993 -0.465827 0.266138 0 255 0
-0.018081 0.078639 0.357954 0 255 0
0.171442 -0.425146 0.224291 0 255 0
0.192113 -0.014187 -0.161159 0 255 0
-0.185017 -0.126808 0.044433 0 255 0
0.195986 -0.016343 -0.349866 0 255 0
0.129002 -0.013416 -0.341242 0 255 0
-0.187353 0.092686 0.447839 0 255 0
0.017437 0.040097 -0.326892 0 255 0
-0.091571 -0.118185 0.349068 0 255 0
0.103416 -0.129419 0.051334 0 255 0
-0.053246 0.052881 0.466331 0 255 0
0.161078 0.075763 0.043489 0 255 0
-0.124260 0.023124 -0.356675 0 255 0
0.081287 0.052408 -0.169215 0 255 0
0.158437 -0.109525 -0.230740 0 255 0
-0.142378 0.111948 0.148583 0 255 0
0.161677 -0.018529 0.334009 0 255 0
0.111982 -0.041448 0.362325 0 255 0
0.110245 0.135080 0.109923 0 255 0
0.043348 0.037395 -0.313209 0 255 0
-0.037708 -0.215458 -0.363363 0 255 0
0.135428 0.065202 0.419102 0 255 0
-0.028103 -0.071550 0.494722 0 255 0
-0.109875 0.097273 -0.072366 0 255 0
0.035674 0.125577 -0.019641 0 255 0
-0.051134 0.123168 0.243293 0 255 0
0.076530 -0.122869 -0.271504 0 255 0
0.111701 0.124255 0.216478 0 255 0
-0.134809 0.284422 -0.420306 0 255 0
0.044847 -0.125749 -0.031079 0 255 0
0.432966 -0.374352 -0.127520 0 255 0
-0.018917 -0.021072 -0.473834 0 255 0
0.060283 0.139490 0.058363 0 255 0
0.041540 0.037927 -0.235879 0 255 0
-0.222982 -0.416786 0.148070 0 255 0
0.184846 0.008041 0.379424 0 255 0
-0.109759 0.083247 -0.094815 0 255 0
-0.005431 0.136444 0.096274 0 255 0
-0.255706 -0.184007 0.287903 0 255 0
0.040520 0.015027 -0.402171 0 255 0
-0.167560 -0.002668 -0.401795 0 255 0
0.195328 -0.026010 0.130985 0 255 0
0.174118 0.048369 0.084575 0 255 0
-0.190300 0.033957 -0.095478 0 255 0
-0.097248 -0.130434 -0.201654 0 255 0
0.253685 0.030343 -0.447893 0 255 0
-0.116970 -0.044815 -0.475300 0 255 0
0.044435 -0.125980 -0.369812 0 255 0
0.256895 -0.289260 0.352835 0 255 0
0.153591 -0.135667 -0.182208 0 255 0
0.295149 -0.041508 0.284392 0 255 0
-0.181311 -0.038928 0.228008 0 255 0
-0.113519 0.212643 0.040372 0 255 0
0.105414 0.043257 0.457113 0 255 0
0.187359 -0.117088 0.170194 0 255 0
0.126602 -0.125076 -0.025596 0 255 0
0.032705 -0.116959 0.308364 0 255 0
0.131375 0.118428 0.072390 0 255 0
-0.149074 -0.125701 0.180461 0 255 0
-0.039175 0.126394 0.218146 0 255 0
-0.188790 -0.126703 0.014726 0 255 0
-0.035534 0.002870 -0.436399 0 255 0
0.108545 0.071603 0.442848 0 255 0
0.186362 0.026542 0.012542 0 255 0
-0.195124 0.009107 0.269852 0 255 0
-0.112774 0.061079 -0.149463 0 255 0
0.020044 -0.377558 -0.092922 0 255 0
-0.082492 0.036162 -0.262843 0 255 0
0.180125 0.035021 0.030655 0 255 0
0.224776 0.408319 -0.178712 0 255 0
0.100798 0.016507 -0.397410 0 255 0
-0.052681 0.035793 -0.315017 0 255 0
0.196772 0.003747 -0.015591 0 255 0
0.053773 -0.120751 0.270538 0 255 0
0.173641 0.082583 0.438132 0 255 0
-0.140077 -0.124447 -0.038222 0 255 0
0.094237 -0.035307 0.491516 0 255 0
-0.111436 -0.070496 0.292196 0 255 0
-0.139885 -0.251606 -0.094016 0 255 0
-0.065736 0.107948 0.281634 0 255 0
0.052483 -0.048555 0.492657 0 255 0
-0.027461 -0.123683 -0.386215 0 255 0
-0.056321 0.013606 -0.397617 0 255 0
-0.185586 0.023529 0.204150 0 255 0
-0.091368 -0.125537 -0.322994 0 255 0
0.106454 -0.122440 0.308991 0 255 0
0.189624 -0.096002 -0.222813 0 255 0
-0.177319 -0.123825 -0.174184 0 255 0
-0.180764 0.063960 0.327916 0 255 0
0.199031 -0.050397 -0.143870 0 255 0
0.189348 -0.039053 0.229581 0 255 0
-0.471707 -0.218705 -0.464532 0 255 0
0.099166 0.108631 -0.051966 0 255 0
-0.167474 0.019349 -0.354761 0 255 0
-0.200727 -0.037869 0.214558 0 255 0
-0.021116 0.133988 0.045456 0 255 0
-0.035871 0.122955 0.240697 0 255 0
-0.272703 -0.040568 0.046545 0 255 0
-0.185881 0.006526 -0.222932 0 255 0
0.085362 0.107493 0.448587 0 255 0
0.129748 -0.058419 0.478526 0 255 0
-0.050578 -0.006418 0.506081 0 255 0
-0.258127 0.016269 0.157965 0 255 0
-0.071108 -0.122608 0.232889 0 255 0
-0.069879 -0.111773 0.451321 0 255 0
-0.116764 -0.062632 0.370124 0 255 0
0.071248 -0.129272 -0.174340 0 255 0
0.115155 -0.027924 -0.463163 0 255 0
-0.107761 -0.115395 0.410765 0 255 0
-0.050274 0.091375 -0.114295 0 255 0
0.163793 0.006722 -0.377940 0 255 0
0.020306 -0.071960 -0.495028 0 255 0
0.054450 -0.123849 -0.397961 0 255 0
0.047867 0.278587 0.181747 0 255 0
-0.257339 0.266627 0.207615 0 255 0
0.060278 0.002808 0.472405 0 255 0
0.029635 -0.012708 -0.460217 0 255 0
0.058850 -0.127131 -0.139012 0 255 0
-0.083406 -0.119869 0.385406 0 255 0
-0.111574 -0.068157 -0.254058 0 255 0
-0.018869 -0.122905 -0.393600 0 255 0
0.199560 -0.097699 -0.062016 0 255 0
0.111102 -0.098644 0.229446 0 255 0
0.191948 -0.014682 0.210477 0 255 0
-0.116645 0.095543 -0.073761 0 255 0
-0.030392 -0.124575 -0.293411 0 255 0
-0.039404 -0.124674 -0.394998 0 255 0
0.437983 -0.067016 0.251444 0 255 0
0.159520 -0.049915 -0.450061 0 255 0
-0.051185 -0.131081 0.069353 0 255 0
-0.116887 -0.052959 -0.304657 0 255 0
0.126769 0.123367 0.191133 0 255 0
0.119642 -0.104995 -0.289167 0 255 0
0.202268 -0.342790 -0.228093 0 255 0
-0.103440 0.036097 -0.252927 0 255 0
-0.113613 -0.086470 -0.275717 0 255 0
0.157923 0.062843 -0.036166 0 255 0
0.418021 0.018152 -0.045249 0 255 0
0.092865 0.108135 0.482015 0 255 0
-0.435372 0.471152 0.323805 0 255 0
0.085528 -0.079110 -0.482872 0 255 0
0.145082 0.098340 0.438955 0 255 0
0.238027 0.133741 -0.352443 0 255 0
-0.053046 -0.140152 -0.179755 0 255 0
-0.193345 -0.096359 -0.214121 0 255 0
0.188161 0.005085 -0.135958 0 255 0
0.001379 0.003287 -0.431643 0 255 0
-0.001197 -0.110989 0.459783 0 255 0
0.116244 -0.055826 -0.476018 0 255 0
-0.053005 -0.120164 0.317814 0 255 0
-0.153574 -0.098114 0.383349 0 255 0
-0.135269 -0.125452 -0.126402 0 255 0
-0.202050 -0.097032 -0.056995 0 255 0
0.153271 0.091251 -0.033236 0 255 0
-0.202802 -0.039832 -0.027222 0 255 0
-0.032088 0.063618 0.428649 0 255 0
-0.144526 -0.055984 -0.237900 0 255 0
-0.025442 0.135377 -0.016573 0 255 0
0.153077 0.087622 0.219443 0 255 0
-0.203494 -0.071784 -0.061695 0 255 0
0.139750 -0.113774 0.419909 0 255 0
-0.383403 -0.246299 0.231625 0 255 0
-0.086992 -0.127419 -0.103643 0 255 0
0.125069 0.041291 -0.282571 0 255 0
-0.026035 0.117966 0.478454 0 255 0
0.397738 0.440122 -0.164439 0 255 0
0.130966 -0.125120 -0.144841 0 255 0
-0.189479 0.030930 -0.069514 0 255 0
-0.334476 -0.362276 0.253896 0 255 0
0.137181 0.110034 0.483643 0 255 0
-0.379518 -0.335919 -0.163789 0 255 0
-0.443416 -0.398946 0.005661 0 255 0
0.017866 0.134154 0.010261 0 255 0
0.173320 -0.011592 0.277616 0 255 0
-0.068131 0.134359 0.047237 0 255 0
-0.178730 -0.025383 0.239718 0 255 0
-0.034700 0.010026 -0.425695 0 255 0
-0.188695 -0.022623 -0.271895 0 255 0
-0.198449 -0.043670 0.104327 0 255 0
0.140618 -0.016647 -0.360867 0 255 0
-0.201927 -0.078503 0.103544 0 255 0
