ply
format ascii 1.0
element vertex 1306
property float x
property float y
property float z
property uchar red
property uchar green
property uchar blue
end_header
0.159708 0.020045 -0.300291 255 0 0
0.072639 -0.124970 0.218928 255 0 0
-0.170719 -0.126319 0.055510 255 0 0
-0.182215 0.030512 -0.032747 255 0 0
0.084987 0.061768 0.369767 255 0 0
-0.054524 -0.112448 -0.221177 255 0 0
-0.172113 -0.032129 0.225747 255 0 0
-0.087910 -0.022642 -0.447465 255 0 0
0.119450 0.115715 0.060857 255 0 0
-0.160673 0.049568 0.267306 255 0 0
-0.107086 -0.112045 -0.446168 255 0 0
-0.154833 -0.035582 -0.262588 255 0 0
-0.127062 0.041758 0.404747 255 0 0
-0.036685 -0.116523 -0.051864 255 0 0
-0.198915 -0.051183 -0.077515 255 0 0
-0.152908 -0.128905 0.178838 255 0 0
-0.182156 -0.124591 -0.215241 255 0 0
-0.147476 0.065564 0.154611 255 0 0
0.181239 -0.124090 0.091505 255 0 0
0.161291 0.056758 -0.031672 255 0 0
0.144773 -0.124032 -0.453553 255 0 0
0.092097 0.094440 -0.078203 255 0 0
-0.061041 0.075703 0.313741 255 0 0
-0.164766 0.036321 -0.197960 255 0 0
-0.160914 0.066222 -0.066533 255 0 0
-0.186068 0.011047 -0.009660 255 0 0
-0.120530 -0.105304 0.469552 255 0 0
-0.181683 -0.100131 -0.081635 255 0 0
-0.165866 -0.123893 -0.063311 255 0 0
-0.189230 -0.059634 0.102975 255 0 0
-0.184184 -0.047313 -0.392307 255 0 0
0.009022 -0.109394 0.167554 255 0 0
-0.187303 -0.110499 -0.026877 255 0 0
-0.084684 -0.109827 0.352758 255 0 0
0.024251 -0.118605 -0.264226 255 0 0
-0.154973 0.031027 -0.217497 255 0 0
-0.030416 -0.121029 0.356494 255 0 0
-0.114765 0.093776 0.243375 255 0 0
0.124978 0.074894 -0.113077 255 0 0
-0.183805 0.003006 -0.346846 255 0 0
-0.036872 -0.122143 -0.418701 255 0 0
-0.070307 0.093436 0.255930 255 0 0
-0.103664 0.024682 -0.246818 255 0 0
-0.160632 0.025458 -0.280367 255 0 0
0.173176 0.018397 -0.252640 255 0 0
-0.195186 -0.012406 0.124654 255 0 0
-0.135535 -0.126486 0.149563 255 0 0
0.039448 0.082611 0.305060 255 0 0
-0.144119 -0.078255 0.203790 255 0 0
-0.129705 0.050530 -0.165171 255 0 0
-0.020696 -0.108245 0.136933 255 0 0
-0.157459 -0.129510 0.011444 255 0 0
0.107366 0.039902 -0.206940 255 0 0
-0.134801 0.043947 0.360491 255 0 0
0.149325 0.051807 -0.139724 255 0 0
-0.117946 0.096656 0.221278 255 0 0
0.113234 -0.127318 -0.060771 255 0 0
-0.185824 -0.020962 -0.152613 255 0 0
-0.180243 -0.126893 -0.166644 255 0 0
-0.185846 -0.096858 -0.048942 255 0 0
0.138520 0.089460 0.209592 255 0 0
-0.041213 -0.118927 0.229059 255 0 0
-0.060065 -0.064343 -0.386936 255 0 0
-0.176472 0.027877 0.138345 255 0 0
-0.078008 0.012752 -0.396050 255 0 0
-0.134113 0.114603 0.053636 255 0 0
0.162804 0.045735 0.086720 255 0 0
0.196625 -0.097795 -0.404351 255 0 0
-0.065923 0.122410 0.123377 255 0 0
-0.111120 0.017899 -0.354440 255 0 0
-0.197584 -0.074318 0.197589 255 0 0
0.062678 -0.082030 -0.489697 255 0 0
0.063362 0.073045 -0.123465 255 0 0
-0.180929 -0.001334 0.074110 255 0 0
0.196532 -0.038568 0.123172 255 0 0
0.136458 0.053887 -0.140794 255 0 0
0.088917 0.114040 -0.042893 255 0 0
-0.065351 0.026592 -0.230702 255 0 0
0.106776 -0.064114 -0.473940 255 0 0
0.182270 -0.125314 -0.123599 255 0 0
0.172863 -0.017384 -0.292861 255 0 0
0.043903 -0.126078 -0.297084 255 0 0
0.110364 0.118888 0.115009 255 0 0
-0.008758 0.012659 -0.389447 255 0 0
0.023937 -0.113640 0.067268 255 0 0
-0.039305 0.090743 0.258767 255 0 0
0.084453 -0.091887 0.222505 255 0 0
0.074132 -0.122354 -0.080112 255 0 0
-0.048056 -0.114682 0.140239 255 0 0
0.140580 -0.075684 0.206103 255 0 0
0.182161 -0.123743 -0.086626 255 0 0
-0.135518 0.111235 -0.025529 255 0 0
0.043355 -0.111615 -0.190586 255 0 0
0.085490 0.068861 0.337756 255 0 0
-0.013135 0.058042 0.405555 255 0 0
-0.039115 0.075042 0.327129 255 0 0
0.187526 0.009883 -0.176835 255 0 0
0.190238 -0.083487 0.052358 255 0 0
-0.196904 -0.075898 0.035227 255 0 0
-0.033747 -0.116002 -0.140247 255 0 0
0.057151 -0.121352 0.069180 255 0 0
0.166139 -0.065128 -0.239401 255 0 0
0.083152 -0.060195 -0.476954 255 0 0
0.031349 -0.119756 -0.271560 255 0 0
0.132103 -0.067428 -0.397424 255 0 0
0.050476 0.120889 0.016010 255 0 0
-0.176993 0.022475 0.125187 255 0 0
0.081486 -0.125237 0.349046 255 0 0
-0.185051 -0.118985 -0.079511 255 0 0
-0.019322 0.093893 0.265869 255 0 0
0.077237 0.006225 -0.417170 255 0 0
0.176070 -0.126837 0.144352 255 0 0
0.042051 0.113370 -0.046629 255 0 0
0.138643 -0.098583 -0.464592 255 0 0
-0.055163 0.072977 0.322200 255 0 0
-0.198072 -0.047783 0.156582 255 0 0
0.089261 -0.086195 -0.299690 255 0 0
0.105961 -0.082984 0.370713 255 0 0
0.009922 0.126349 0.074014 255 0 0
-0.085666 0.088059 0.276540 255 0 0
0.154941 -0.123922 -0.440448 255 0 0
-0.097603 0.105144 0.194153 255 0 0
-0.142264 -0.087439 -0.402684 255 0 0
0.098860 -0.128618 0.063474 255 0 0
0.182424 0.025096 0.047142 255 0 0
0.068568 0.027887 -0.296650 255 0 0
-0.156502 -0.017470 -0.279231 255 0 0
0.123050 -0.063361 0.473985 255 0 0
-0.106525 0.031224 -0.185584 255 0 0
-0.018017 -0.108709 0.146789 255 0 0
0.181398 -0.114835 -0.081620 255 0 0
0.135742 -0.097415 0.375121 255 0 0
0.170748 -0.070606 -0.398996 255 0 0
-0.093588 -0.065903 -0.363176 255 0 0
-0.182132 -0.103675 -0.049974 255 0 0
-0.013255 0.022025 -0.353785 255 0 0
0.008240 0.010451 -0.406333 255 0 0
-0.196663 -0.028489 0.340077 255 0 0
-0.077262 -0.054664 0.484436 255 0 0
-0.131376 -0.127065 -0.420213 255 0 0
0.179545 -0.023854 -0.426348 255 0 0
0.085915 0.006995 -0.403493 255 0 0
-0.155329 -0.093191 -0.405692 255 0 0
-0.137843 -0.052553 0.461170 255 0 0
-0.196755 -0.026459 0.096044 255 0 0
-0.082238 -0.088169 -0.462360 255 0 0
-0.014200 0.025547 -0.342493 255 0 0
-0.041561 -0.112747 0.192284 255 0 0
-0.145989 -0.026117 -0.272670 255 0 0
-0.105495 0.099553 0.209192 255 0 0
0.115306 -0.128019 0.134177 255 0 0
0.010459 -0.111948 -0.082747 255 0 0
0.026861 0.006369 0.471605 255 0 0
0.132962 0.078192 0.282841 255 0 0
-0.072038 -0.122309 0.079486 255 0 0
0.061104 -0.125565 -0.474962 255 0 0
-0.034188 -0.051928 -0.356172 255 0 0
-0.185893 -0.119096 0.117404 255 0 0
0.141236 -0.129580 -0.027289 255 0 0
-0.141327 -0.038871 -0.379175 255 0 0
-0.084574 -0.129545 -0.373559 255 0 0
-0.175414 -0.017630 0.295114 255 0 0
-0.123583 -0.080827 0.476163 255 0 0
0.191642 -0.001848 0.084109 255 0 0
0.013593 0.067866 0.354967 255 0 0
0.017667 -0.071093 0.302510 255 0 0
-0.064991 -0.118674 0.120673 255 0 0
0.171154 0.041312 -0.042792 255 0 0
0.046946 -0.119329 0.153788 255 0 0
0.012237 0.021912 -0.324268 255 0 0
0.189990 0.011819 0.133389 255 0 0
0.065618 -0.065535 0.489944 255 0 0
-0.122075 0.049766 0.392405 255 0 0
0.188687 0.007194 0.270931 255 0 0
0.171895 0.039297 0.042612 255 0 0
-0.059665 0.067258 0.339473 255 0 0
-0.138176 -0.126007 -0.423604 255 0 0
0.160006 -0.123693 -0.041925 255 0 0
-0.054258 0.066333 0.346872 255 0 0
0.076477 -0.124493 0.280453 255 0 0
-0.134505 0.074960 0.248300 255 0 0
-0.032139 -0.068510 -0.494811 255 0 0
-0.135238 0.103868 0.170980 255 0 0
-0.156058 0.068217 0.055300 255 0 0
0.176704 0.029702 0.235243 255 0 0
-0.064061 -0.115935 0.416191 255 0 0
0.104306 0.044773 0.430146 255 0 0
-0.139223 0.083768 0.124468 255 0 0
0.147128 -0.044549 0.354135 255 0 0
-0.042819 0.119807 0.114067 255 0 0
-0.117005 0.050675 -0.169122 255 0 0
-0.188455 -0.084336 0.028488 255 0 0
0.157094 0.052220 0.205398 255 0 0
-0.097872 -0.023605 -0.355143 255 0 0
0.196961 -0.093798 -0.202197 255 0 0
-0.045961 -0.128603 -0.390001 255 0 0
-0.011394 -0.102989 -0.486346 255 0 0
0.184326 -0.111539 0.376707 255 0 0
0.176374 -0.022897 -0.266707 255 0 0
0.108342 -0.033362 -0.459973 255 0 0
-0.164757 0.046007 -0.045893 255 0 0
-0.027684 -0.115403 -0.019044 255 0 0
-0.137797 -0.116694 0.410816 255 0 0
-0.029219 -0.114555 -0.250015 255 0 0
0.166185 0.034932 0.207660 255 0 0
-0.193456 -0.000447 -0.311766 255 0 0
0.171428 -0.119733 0.397916 255 0 0
0.092293 0.009302 -0.401181 255 0 0
0.069647 -0.121054 -0.042225 255 0 0
0.007617 -0.125763 -0.402012 255 0 0
0.195155 -0.031464 0.352715 255 0 0
0.077212 0.115733 -0.016439 255 0 0
-0.148823 -0.130020 0.155585 255 0 0
-0.142356 0.080609 0.190689 255 0 0
0.009004 0.124123 -0.006419 255 0 0
0.192555 -0.099102 -0.416727 255 0 0
-0.124946 -0.130304 -0.182840 255 0 0
-0.099727 0.080433 0.274516 255 0 0
0.148263 -0.015050 0.291704 255 0 0
0.150011 -0.127553 0.145907 255 0 0
-0.022008 -0.109834 0.149975 255 0 0
0.220581 0.044615 -0.105674 255 0 0
-0.072911 -0.102704 0.467470 255 0 0
0.093168 0.063043 0.353987 255 0 0
-0.006827 -0.114286 -0.489266 255 0 0
-0.172982 -0.127506 0.091570 255 0 0
-0.182880 0.026104 -0.226911 255 0 0
0.176517 -0.070167 -0.444468 255 0 0
-0.015269 -0.116331 -0.263675 255 0 0
0.197918 -0.005610 -0.303966 255 0 0
-0.044392 0.019591 -0.326463 255 0 0
0.092631 -0.128616 -0.136715 255 0 0
0.154586 -0.123759 -0.453753 255 0 0
0.098781 -0.123073 -0.189236 255 0 0
-0.114539 -0.117453 -0.408617 255 0 0
-0.014583 -0.007139 -0.444350 255 0 0
-0.093802 -0.028714 -0.347672 255 0 0
-0.027831 -0.106436 -0.243079 255 0 0
-0.186636 0.005151 0.107586 255 0 0
-0.171049 -0.121553 0.379060 255 0 0
-0.151516 -0.110177 0.448105 255 0 0
0.011599 0.024111 -0.304696 255 0 0
-0.018249 0.090896 0.262414 255 0 0
-0.150974 -0.128828 0.062145 255 0 0
0.031532 -0.114887 0.162037 255 0 0
-0.043757 0.091324 -0.087260 255 0 0
0.195804 0.001969 -0.224493 255 0 0
0.076214 -0.121782 0.310075 255 0 0
0.144827 -0.120550 0.416855 255 0 0
-0.135653 -0.045513 0.466085 255 0 0
-0.038625 0.052702 0.431310 255 0 0
-0.066288 -0.124044 0.241103 255 0 0
-0.120864 0.021454 -0.329018 255 0 0
0.161391 -0.090375 0.414248 255 0 0
-0.019125 -0.113877 -0.018985 255 0 0
0.042947 0.032369 -0.275515 255 0 0
-0.196623 -0.015342 -0.358680 255 0 0
0.054208 -0.078513 -0.490488 255 0 0
-0.008470 -0.020757 0.482703 255 0 0
0.127821 0.071379 0.306964 255 0 0
0.168996 0.022712 0.377458 255 0 0
-0.160887 -0.005441 0.421139 255 0 0
-0.194680 -0.004493 0.331221 255 0 0
0.087993 -0.081967 -0.239098 255 0 0
0.003586 0.106983 0.221914 255 0 0
-0.040680 0.082574 -0.096345 255 0 0
0.182218 -0.106562 -0.427065 255 0 0
-0.125939 -0.097149 -0.461162 255 0 0
-0.136295 0.088186 0.239697 255 0 0
-0.082198 -0.076336 -0.486273 255 0 0
-0.070087 -0.125495 0.333977 255 0 0
-0.093290 -0.126596 -0.442131 255 0 0
-0.021453 0.028872 -0.225465 255 0 0
-0.099026 -0.125464 -0.191253 255 0 0
-0.052017 0.121963 0.098612 255 0 0
-0.218959 0.053735 -0.087631 255 0 0
-0.033572 -0.113624 -0.172232 255 0 0
0.183369 0.019209 0.091915 255 0 0
-0.024579 0.116692 0.041859 255 0 0
-0.136458 0.102621 -0.054617 255 0 0
-0.054518 -0.052932 -0.493326 255 0 0
0.170375 0.031346 0.341791 255 0 0
-0.177986 -0.128013 -0.233180 255 0 0
0.169547 -0.128173 -0.173119 255 0 0
0.066465 0.115872 -0.038035 255 0 0
-0.194896 -0.037081 -0.061338 255 0 0
0.195575 -0.068736 0.371907 255 0 0
0.192553 0.011226 0.072987 255 0 0
0.097343 0.121660 0.013501 255 0 0
-0.151160 0.077755 0.002884 255 0 0
-0.095192 -0.129428 -0.120448 255 0 0
-0.165007 -0.021410 0.420943 255 0 0
-0.013675 0.102758 0.225217 255 0 0
0.148900 0.025798 -0.277471 255 0 0
0.045722 -0.119305 0.422334 255 0 0
0.091909 -0.105108 0.214598 255 0 0
-0.072709 -0.125072 0.113095 255 0 0
0.186102 0.027711 -0.161506 255 0 0
-0.186992 -0.116354 0.132191 255 0 0
-0.197439 -0.009310 0.301818 255 0 0
-0.015391 0.064447 -0.152695 255 0 0
0.177593 -0.011333 -0.417728 255 0 0
0.152464 -0.127631 -0.229550 255 0 0
-0.004895 -0.079948 -0.495375 255 0 0
-0.196607 -0.040982 -0.021810 255 0 0
0.180301 -0.100499 0.069349 255 0 0
0.036164 0.094482 -0.063326 255 0 0
-0.162401 0.049557 0.193347 255 0 0
-0.074650 -0.123544 0.066054 255 0 0
-0.125244 0.044262 0.422902 255 0 0
-0.155659 0.029369 -0.267743 255 0 0
0.153928 0.064668 0.110938 255 0 0
-0.124174 -0.028441 0.471154 255 0 0
-0.046394 -0.127721 -0.433191 255 0 0
-0.063460 0.101902 0.224816 255 0 0
0.024266 -0.107384 -0.134590 255 0 0
0.141313 -0.041986 0.366851 255 0 0
-0.160875 0.068742 -0.101048 255 0 0
0.068270 0.112207 0.170509 255 0 0
-0.043675 -0.070908 -0.495349 255 0 0
0.012360 -0.030658 -0.473345 255 0 0
0.090932 -0.121954 0.365902 255 0 0
-0.051275 -0.009328 0.474613 255 0 0
-0.087488 -0.110593 0.372726 255 0 0
-0.071123 0.054674 0.381993 255 0 0
0.032859 0.062979 0.368552 255 0 0
-0.019898 -0.096518 0.474846 255 0 0
0.098889 -0.006797 0.461397 255 0 0
-0.109298 0.047220 0.422198 255 0 0
-0.030853 -0.113521 0.173043 255 0 0
0.034382 0.062157 -0.159098 255 0 0
0.005619 -0.112831 0.365931 255 0 0
-0.089147 0.029316 -0.209378 255 0 0
0.060898 -0.068727 -0.485606 255 0 0
0.138727 0.085780 0.218479 255 0 0
-0.125283 -0.121396 0.103069 255 0 0
-0.147810 0.088638 0.052984 255 0 0
0.141644 0.096110 -0.003328 255 0 0
0.020384 -0.116719 -0.288559 255 0 0
0.150466 0.055943 0.275075 255 0 0
-0.111497 -0.023648 0.234469 255 0 0
-0.067734 0.026825 -0.224959 255 0 0
-0.109843 -0.013468 -0.322078 255 0 0
0.180391 0.030720 -0.191982 255 0 0
0.003932 -0.103538 0.173967 255 0 0
-0.198822 -0.069558 -0.408909 255 0 0
-0.066794 0.123407 0.082004 255 0 0
-0.192518 -0.101854 0.192911 255 0 0
-0.015052 0.087767 0.295491 255 0 0
-0.118682 0.061735 -0.142306 255 0 0
0.164312 -0.126896 0.157783 255 0 0
0.191427 -0.028836 -0.365556 255 0 0
-0.184358 -0.111107 0.376508 255 0 0
-0.197700 -0.027912 -0.209313 255 0 0
-0.188385 -0.020196 0.158689 255 0 0
-0.180376 0.028283 -0.041323 255 0 0
0.013038 -0.122768 -0.354379 255 0 0
0.090224 -0.071307 -0.239157 255 0 0
-0.175830 -0.073364 0.409256 255 0 0
0.029833 -0.120947 -0.267543 255 0 0
0.070252 0.088726 0.257359 255 0 0
-0.187142 -0.058445 0.171915 255 0 0
-0.193097 -0.023848 0.140865 255 0 0
-0.168009 0.034577 0.338532 255 0 0
0.125415 0.040079 0.431530 255 0 0
-0.149132 0.058841 0.292631 255 0 0
-0.114386 -0.130244 -0.201288 255 0 0
0.183438 -0.125848 -0.108014 255 0 0
0.189448 0.012481 -0.234200 255 0 0
0.164812 -0.118660 0.414622 255 0 0
0.191082 -0.113859 -0.147251 255 0 0
-0.051604 -0.063486 0.484916 255 0 0
-0.146009 -0.120250 -0.224999 255 0 0
0.189130 -0.009803 -0.326593 255 0 0
0.190313 -0.023633 0.147885 255 0 0
-0.100712 -0.128144 -0.180587 255 0 0
0.175320 0.031536 -0.085963 255 0 0
-0.118138 0.093086 0.237952 255 0 0
-0.143377 0.033575 0.427272 255 0 0
-0.171732 -0.115841 -0.162355 255 0 0
0.100301 -0.108453 0.199624 255 0 0
0.193561 -0.005713 0.149833 255 0 0
-0.048560 -0.089461 -0.483347 255 0 0
0.192567 -0.072673 0.110993 255 0 0
0.186285 -0.108475 0.047446 255 0 0
-0.118954 -0.067658 0.477997 255 0 0
0.116583 -0.077584 0.477390 255 0 0
0.111063 -0.026171 0.465443 255 0 0
0.182529 -0.097452 -0.408931 255 0 0
-0.019976 -0.106314 -0.079462 255 0 0
-0.155991 0.038081 0.222825 255 0 0
0.036637 -0.112925 0.439986 255 0 0
0.133202 -0.127846 0.162815 255 0 0
0.114331 -0.126374 0.098114 255 0 0
0.143380 -0.011904 0.446009 255 0 0
0.169840 -0.020727 0.259748 255 0 0
0.103116 -0.123885 -0.444398 255 0 0
0.089278 -0.127934 0.041800 255 0 0
-0.194927 0.002562 0.260483 255 0 0
0.066208 -0.091077 0.482856 255 0 0
-0.181964 -0.010847 0.252024 255 0 0
-0.092064 -0.057517 -0.333278 255 0 0
-0.191221 0.042472 -0.127255 255 0 0
-0.185414 -0.077978 0.009616 255 0 0
-0.043507 0.122934 0.101526 255 0 0
0.026767 0.019646 -0.360602 255 0 0
0.108165 0.113269 0.153749 255 0 0
-0.194875 -0.017019 0.142419 255 0 0
-0.186849 -0.034957 -0.082804 255 0 0
-0.122752 0.119137 0.048055 255 0 0
0.205168 0.045718 -0.119604 255 0 0
-0.178571 0.015787 -0.313585 255 0 0
-0.190358 -0.016967 0.347921 255 0 0
0.182840 0.029791 -0.036497 255 0 0
0.191116 -0.056359 -0.421079 255 0 0
-0.088227 -0.070434 -0.350556 255 0 0
0.114320 -0.051091 -0.391703 255 0 0
0.102730 -0.129373 0.092876 255 0 0
-0.011220 -0.109082 0.240778 255 0 0
0.041506 0.113791 0.122628 255 0 0
-0.154892 0.065785 0.055356 255 0 0
0.053921 0.127109 0.062444 255 0 0
0.039688 0.111333 0.179563 255 0 0
-0.088819 0.120415 0.103857 255 0 0
0.025824 -0.104524 0.462106 255 0 0
-0.094799 -0.109855 0.377354 255 0 0
-0.103300 0.034185 -0.260195 255 0 0
-0.107340 -0.011598 -0.325765 255 0 0
-0.176891 0.032597 0.050518 255 0 0
-0.142464 0.074235 -0.117340 255 0 0
-0.176959 -0.002929 0.387604 255 0 0
-0.114674 -0.040826 0.469055 255 0 0
0.191581 -0.072156 -0.405899 255 0 0
0.149690 -0.017814 -0.300786 255 0 0
0.185975 -0.014812 0.350437 255 0 0
0.047151 0.013393 -0.353954 255 0 0
0.158173 -0.069399 0.210504 255 0 0
-0.121848 0.016395 -0.360236 255 0 0
0.085831 -0.121654 0.026921 255 0 0
-0.050495 0.123943 0.040984 255 0 0
-0.034196 0.081358 0.314882 255 0 0
0.104839 -0.102368 0.431634 255 0 0
0.079266 0.078248 -0.101073 255 0 0
0.060722 0.080854 0.299720 255 0 0
-0.008303 -0.020771 -0.472047 255 0 0
0.136966 0.060273 -0.028853 255 0 0
0.055095 0.033857 -0.287412 255 0 0
0.069510 0.022666 0.456332 255 0 0
-0.044257 0.114849 0.165998 255 0 0
-0.179576 -0.013135 -0.389290 255 0 0
0.039452 0.120212 0.069335 255 0 0
0.188776 -0.053420 -0.012562 255 0 0
-0.188129 0.010879 -0.220106 255 0 0
-0.021015 0.110535 -0.051142 255 0 0
0.185650 0.006266 0.239298 255 0 0
-0.070019 -0.123492 -0.416527 255 0 0
-0.134032 -0.015082 0.457296 255 0 0
-0.089410 0.101846 0.217117 255 0 0
-0.095319 0.065124 0.348784 255 0 0
-0.150224 0.081802 -0.035721 255 0 0
-0.124277 -0.102755 -0.405732 255 0 0
-0.075671 0.092182 0.236594 255 0 0
0.195211 -0.074212 0.197157 255 0 0
-0.180253 -0.125211 0.186229 255 0 0
0.051430 -0.082560 -0.485582 255 0 0
-0.183847 0.016886 0.251527 255 0 0
-0.167215 -0.024555 -0.269953 255 0 0
0.196958 -0.001808 -0.319264 255 0 0
0.197964 -0.030824 -0.089064 255 0 0
-0.091238 -0.090419 0.256137 255 0 0
0.123169 -0.036882 -0.374467 255 0 0
0.035161 -0.025089 -0.469037 255 0 0
0.110075 -0.122056 0.011351 255 0 0
-0.177550 0.031360 -0.049598 255 0 0
-0.014141 -0.123559 -0.471915 255 0 0
-0.098842 0.032014 -0.204864 255 0 0
-0.131858 -0.123173 0.202084 255 0 0
0.016044 0.009900 -0.396630 255 0 0
-0.081519 0.115386 -0.017927 255 0 0
-0.049235 0.057835 0.378784 255 0 0
0.123890 0.025951 -0.269163 255 0 0
-0.068137 0.001323 0.465440 255 0 0
-0.175650 -0.083161 0.370794 255 0 0
-0.179665 -0.062703 -0.004013 255 0 0
-0.039330 -0.118082 0.268336 255 0 0
-0.140332 0.073029 -0.119327 255 0 0
-0.078679 0.121706 0.124317 255 0 0
0.158637 0.065477 0.011140 255 0 0
0.193779 -0.037936 -0.086344 255 0 0
0.008934 0.027724 -0.303415 255 0 0
-0.180979 0.024666 0.052958 255 0 0
-0.061172 0.095133 0.242001 255 0 0
0.202885 0.030404 -0.124732 255 0 0
0.175333 0.026722 0.240116 255 0 0
0.145154 0.081473 0.204508 255 0 0
0.031751 -0.012413 -0.454388 255 0 0
0.094045 -0.128324 -0.114630 255 0 0
-0.035127 -0.054853 0.162883 255 0 0
-0.090180 -0.117015 -0.165222 255 0 0
-0.192950 0.006230 0.283268 255 0 0
0.100017 0.111114 0.155518 255 0 0
-0.162640 -0.112975 -0.229363 255 0 0
-0.058966 0.027647 -0.325152 255 0 0
0.098327 0.060921 0.344078 255 0 0
0.062623 -0.129696 -0.326395 255 0 0
-0.134792 -0.128611 0.158191 255 0 0
-0.114998 0.028855 -0.290025 255 0 0
-0.194943 -0.067192 0.062398 255 0 0
-0.145464 0.103864 -0.036993 255 0 0
-0.026738 -0.031583 0.491212 255 0 0
-0.037758 0.078978 0.320432 255 0 0
-0.031389 0.034805 -0.276101 255 0 0
0.123925 -0.128496 0.198685 255 0 0
0.052666 0.035626 -0.226216 255 0 0
-0.198573 -0.038272 -0.100395 255 0 0
-0.047992 0.071440 0.314373 255 0 0
-0.129198 0.053502 0.356486 255 0 0
0.152768 -0.124408 0.078142 255 0 0
0.196816 -0.019808 -0.289940 255 0 0
0.165810 -0.128677 0.122329 255 0 0
0.136765 0.111914 -0.006234 255 0 0
-0.107399 -0.128805 -0.139751 255 0 0
-0.110283 -0.059384 -0.396177 255 0 0
-0.157423 -0.128999 -0.164735 255 0 0
-0.077108 -0.016847 -0.437186 255 0 0
-0.035245 0.058847 0.400250 255 0 0
-0.137721 -0.127345 -0.125114 255 0 0
0.098338 0.113457 0.129232 255 0 0
0.125597 0.078970 0.291866 255 0 0
0.004361 0.035444 -0.246964 255 0 0
-0.162439 0.013841 -0.358381 255 0 0
0.019644 -0.114736 0.339635 255 0 0
-0.059221 -0.120582 0.355528 255 0 0
0.147246 0.077760 -0.102539 255 0 0
-0.198410 -0.030137 0.356009 255 0 0
0.009822 -0.117697 -0.339962 255 0 0
-0.155497 -0.129343 0.065677 255 0 0
-0.136956 0.110541 0.117082 255 0 0
-0.123099 0.120249 0.068165 255 0 0
-0.152829 0.069805 0.153438 255 0 0
-0.032670 -0.117785 0.208832 255 0 0
-0.080463 -0.125157 -0.070111 255 0 0
0.040289 -0.112691 0.257784 255 0 0
-0.060960 -0.046938 -0.480998 255 0 0
-0.012830 0.024862 -0.341636 255 0 0
0.019116 0.005554 -0.424296 255 0 0
-0.156315 -0.013962 0.441511 255 0 0
0.100531 0.107230 0.161300 255 0 0
0.155091 -0.061761 0.451256 255 0 0
-0.083033 -0.025918 0.480901 255 0 0
0.064175 0.124347 0.095578 255 0 0
-0.133809 0.114524 0.030420 255 0 0
-0.192930 0.003594 -0.293447 255 0 0
-0.068003 0.090250 0.269717 255 0 0
-0.188313 0.006343 0.058675 255 0 0
-0.189100 -0.088648 -0.051797 255 0 0
-0.036762 -0.109980 -0.116057 255 0 0
0.191579 -0.093262 0.141772 255 0 0
0.192412 -0.101089 0.185060 255 0 0
-0.196453 -0.010118 0.335961 255 0 0
-0.183336 -0.012917 0.355704 255 0 0
-0.012014 -0.111193 -0.101944 255 0 0
0.033833 -0.118049 -0.006815 255 0 0
0.112756 -0.015599 0.299054 255 0 0
0.177396 -0.108816 0.070570 255 0 0
0.024382 0.028740 -0.313240 255 0 0
-0.096221 0.028346 -0.269452 255 0 0
-0.135900 -0.081873 0.468373 255 0 0
-0.007455 -0.119021 -0.319425 255 0 0
0.124352 -0.127791 0.005129 255 0 0
-0.099617 -0.115526 0.423566 255 0 0
-0.148460 -0.123082 -0.052959 255 0 0
-0.058885 -0.121153 0.388053 255 0 0
0.088981 0.029286 -0.313093 255 0 0
-0.106467 -0.125355 -0.231879 255 0 0
0.190483 0.005429 -0.111352 255 0 0
-0.188572 -0.084217 0.042357 255 0 0
-0.097707 -0.126359 0.085583 255 0 0
0.120564 -0.126122 0.153236 255 0 0
0.175617 0.008158 0.385026 255 0 0
-0.042866 -0.118702 0.211833 255 0 0
0.131535 0.112968 -0.026753 255 0 0
0.008429 -0.110072 0.082639 255 0 0
-0.140045 -0.130389 -0.079904 255 0 0
0.022782 0.017066 -0.374762 255 0 0
0.130910 -0.109972 0.421436 255 0 0
0.030918 -0.009976 -0.455327 255 0 0
-0.016291 0.053861 0.430989 255 0 0
0.159232 0.023186 -0.246791 255 0 0
-0.013102 -0.000198 -0.430814 255 0 0
-0.071241 -0.117323 0.164149 255 0 0
0.144185 0.033556 -0.241262 255 0 0
0.063122 -0.117700 -0.257445 255 0 0
0.040249 -0.119075 0.137788 255 0 0
-0.116088 -0.024113 0.465352 255 0 0
0.027620 0.114260 0.167421 255 0 0
-0.169973 -0.024875 0.249594 255 0 0
0.125239 0.095235 0.238329 255 0 0
-0.089689 -0.129021 0.293335 255 0 0
0.023848 -0.104328 0.481010 255 0 0
0.156252 0.062453 -0.053742 255 0 0
-0.134155 -0.038573 0.467212 255 0 0
-0.100266 0.085806 -0.102379 255 0 0
-0.000528 0.001132 -0.407226 255 0 0
0.172776 0.031757 0.324921 255 0 0
-0.018276 -0.039219 0.492884 255 0 0
0.189470 -0.080440 0.047686 255 0 0
0.191633 -0.008260 -0.304011 255 0 0
0.128255 0.061334 0.332363 255 0 0
0.086734 -0.374394 0.405303 255 0 0
0.182378 -0.119047 0.020982 255 0 0
0.113616 0.010703 -0.389552 255 0 0
-0.193256 -0.087919 -0.147111 255 0 0
-0.195751 -0.078572 -0.406646 255 0 0
0.119559 -0.125727 0.067833 255 0 0
-0.118317 -0.126399 -0.032462 255 0 0
0.059042 -0.120323 0.206323 255 0 0
-0.128085 -0.124602 -0.067182 255 0 0
0.141387 0.035201 -0.181198 255 0 0
0.178891 0.023351 0.278252 255 0 0
0.185899 0.009912 0.331244 255 0 0
0.133603 -0.031490 -0.448855 255 0 0
0.192300 -0.031023 -0.368415 255 0 0
-0.163296 -0.012315 -0.281575 255 0 0
0.049968 -0.118877 -0.227808 255 0 0
-0.170770 0.016245 0.375951 255 0 0
-0.106191 -0.125800 0.009845 255 0 0
-0.114280 -0.017614 -0.295245 255 0 0
-0.063264 -0.117426 0.030140 255 0 0
-0.136673 0.032162 -0.209200 255 0 0
-0.108318 -0.128260 -0.028058 255 0 0
-0.181713 -0.108491 -0.129530 255 0 0
-0.123656 -0.129455 0.003098 255 0 0
-0.144549 -0.130210 -0.172075 255 0 0
-0.049792 -0.130031 -0.336913 255 0 0
-0.013938 -0.068136 -0.492493 255 0 0
-0.097872 0.075861 0.294303 255 0 0
-0.167862 0.026503 0.381834 255 0 0
0.190845 -0.000718 0.253219 255 0 0
-0.066349 0.115524 -0.036008 255 0 0
-0.192153 -0.001039 -0.058743 255 0 0
-0.080610 0.017530 -0.348389 255 0 0
0.048082 -0.018670 0.476565 255 0 0
0.142168 -0.012994 0.450543 255 0 0
-0.157690 0.041131 0.161682 255 0 0
0.055437 -0.030634 0.487418 255 0 0
0.195899 -0.012381 -0.312931 255 0 0
0.195394 -0.007360 -0.020188 255 0 0
0.187265 -0.104558 0.138360 255 0 0
0.146461 0.101972 -0.027237 255 0 0
0.180663 -0.125062 0.015950 255 0 0
0.184200 -0.087992 0.394847 255 0 0
0.065748 -0.112016 0.430528 255 0 0
0.195148 -0.075159 -0.004145 255 0 0
0.195685 -0.048801 -0.055614 255 0 0
0.049539 0.019574 -0.361689 255 0 0
0.116980 0.037395 0.395699 255 0 0
-0.032756 -0.110628 -0.035834 255 0 0
-0.184274 0.012626 -0.065969 255 0 0
-0.111770 -0.102093 -0.232374 255 0 0
-0.037147 -0.122201 0.364222 255 0 0
-0.040893 -0.057993 -0.492430 255 0 0
0.087367 -0.013195 0.467711 255 0 0
0.193961 -0.059302 0.004653 255 0 0
0.161959 0.054639 0.101194 255 0 0
-0.115704 0.034144 -0.190021 255 0 0
-0.190441 -0.013623 -0.226650 255 0 0
0.099393 -0.007197 -0.215747 255 0 0
0.175523 0.030845 -0.218811 255 0 0
0.001357 -0.111098 0.364429 255 0 0
0.029263 0.016235 -0.183407 255 0 0
-0.186749 0.014162 -0.002420 255 0 0
-0.185744 -0.097817 -0.018810 255 0 0
0.026075 -0.120662 0.389109 255 0 0
-0.008966 -0.108338 -0.035191 255 0 0
0.043397 0.038502 0.463219 255 0 0
0.152650 -0.129279 0.166631 255 0 0
0.134838 -0.105001 -0.411226 255 0 0
0.193091 -0.008831 -0.185025 255 0 0
0.117369 -0.036403 -0.389041 255 0 0
-0.159822 0.046218 -0.166397 255 0 0
-0.162128 0.046987 0.173721 255 0 0
-0.027245 -0.102504 -0.487382 255 0 0
-0.079889 -0.115382 0.115610 255 0 0
0.189877 -0.038765 -0.054853 255 0 0
0.107350 0.027476 -0.316810 255 0 0
0.043193 -0.114762 0.205886 255 0 0
-0.048936 0.112293 0.181203 255 0 0
0.184215 -0.022563 -0.416581 255 0 0
-0.197878 -0.045795 -0.166476 255 0 0
0.168175 -0.006832 -0.384054 255 0 0
0.090446 -0.125296 -0.365919 255 0 0
-0.194105 -0.063355 0.116530 255 0 0
0.115971 -0.099413 0.373269 255 0 0
0.055877 0.057733 0.417891 255 0 0
0.088058 -0.101786 0.301271 255 0 0
-0.030504 -0.004025 -0.438998 255 0 0
-0.024440 -0.045116 0.488753 255 0 0
0.042895 0.118680 0.054805 255 0 0
0.122478 -0.107740 0.462466 255 0 0
-0.015661 0.090858 -0.109008 255 0 0
0.057671 -0.121723 -0.188911 255 0 0
0.003467 -0.105613 0.217268 255 0 0
0.194851 -0.053738 0.081647 255 0 0
0.065958 -0.119850 0.147787 255 0 0
0.094069 -0.080057 -0.344761 255 0 0
0.145885 0.085693 -0.032032 255 0 0
0.061507 0.123854 0.083831 255 0 0
-0.119693 -0.030582 -0.373055 255 0 0
-0.091814 -0.099034 0.300774 255 0 0
0.158347 0.064908 -0.031170 255 0 0
0.088847 -0.072844 -0.354229 255 0 0
-0.180915 -0.023922 0.396469 255 0 0
0.191657 -0.048138 -0.160122 255 0 0
0.003282 -0.106531 -0.066917 255 0 0
0.185730 -0.000242 -0.259363 255 0 0
0.135266 0.016712 -0.354438 255 0 0
-0.162189 0.035390 0.351200 255 0 0
-0.149058 0.096704 -0.066009 255 0 0
0.059526 0.037464 0.458784 255 0 0
0.007063 0.098853 0.245921 255 0 0
0.039979 0.078320 -0.117270 255 0 0
0.187577 -0.101210 -0.100125 255 0 0
-0.147771 0.032006 0.400690 255 0 0
0.136290 -0.001925 -0.390575 255 0 0
-0.159021 -0.126196 -0.185759 255 0 0
0.062941 0.121150 0.086262 255 0 0
-0.087904 -0.128642 -0.390044 255 0 0
0.163356 0.008131 0.417634 255 0 0
-0.188099 -0.073939 0.102595 255 0 0
-0.018100 -0.118020 -0.283891 255 0 0
-0.010811 -0.112320 -0.102315 255 0 0
0.192291 -0.104609 0.170827 255 0 0
-0.171523 0.044387 -0.151181 255 0 0
-0.094106 0.076684 0.298575 255 0 0
0.071695 -0.120438 0.390218 255 0 0
-0.211135 0.036581 -0.125253 255 0 0
0.175636 -0.123170 -0.405014 255 0 0
0.196565 -0.040044 0.066262 255 0 0
0.088116 -0.074507 -0.479946 255 0 0
0.179160 -0.129335 0.194249 255 0 0
-0.166948 -0.130269 -0.151454 255 0 0
0.155971 -0.015973 0.446072 255 0 0
-0.086450 0.092389 0.243194 255 0 0
-0.124752 0.112807 -0.032132 255 0 0
0.188264 -0.005359 -0.041140 255 0 0
-0.008350 -0.113005 -0.036502 255 0 0
0.018635 -0.116545 -0.251015 255 0 0
-0.004874 0.068709 -0.153392 255 0 0
-0.063250 -0.124965 -0.278259 255 0 0
0.185501 -0.119666 -0.021579 255 0 0
-0.019225 -0.124657 -0.352785 255 0 0
0.081983 -0.058127 0.103455 255 0 0
0.124654 0.120797 0.091630 255 0 0
-0.074425 -0.003664 -0.434613 255 0 0
-0.187780 0.010150 -0.142729 255 0 0
0.123270 0.111296 0.051187 255 0 0
0.030376 -0.118561 -0.251869 255 0 0
0.183948 -0.106813 0.043279 255 0 0
0.071029 0.102996 -0.071148 255 0 0
0.030377 -0.128028 -0.446607 255 0 0
-0.090364 -0.078083 -0.367127 255 0 0
0.120601 -0.102708 0.381019 255 0 0
0.090824 0.112541 0.125145 255 0 0
-0.195688 -0.040688 0.058077 255 0 0
0.120041 0.105942 0.156523 255 0 0
-0.077964 -0.017699 -0.452626 255 0 0
-0.031612 -0.120703 0.328331 255 0 0
-0.097108 0.124818 0.056268 255 0 0
0.125767 -0.092201 0.466457 255 0 0
-0.161747 -0.129413 0.042301 255 0 0
-0.121596 -0.015415 0.285280 255 0 0
0.019358 0.035799 -0.234825 255 0 0
-0.004473 0.025410 -0.323866 255 0 0
0.113118 0.019348 0.449726 255 0 0
-0.041408 -0.112135 0.196765 255 0 0
0.174946 -0.100457 -0.406206 255 0 0
0.030409 -0.117269 -0.192229 255 0 0
0.105406 0.031144 -0.253710 255 0 0
-0.101763 0.070982 -0.134068 255 0 0
0.119415 0.114882 0.143544 255 0 0
-0.106376 -0.128952 -0.019361 255 0 0
-0.151649 0.069674 -0.121916 255 0 0
0.188483 -0.079793 0.385791 255 0 0
0.119304 -0.012384 -0.308039 255 0 0
0.001389 0.126431 0.055915 255 0 0
-0.187808 0.000506 -0.141390 255 0 0
0.019314 -0.111178 -0.226494 255 0 0
0.096595 0.088453 0.252562 255 0 0
0.092516 -0.107324 0.460451 255 0 0
-0.069947 0.119909 0.123267 255 0 0
0.181235 -0.126233 0.016509 255 0 0
0.037878 -0.121319 -0.301196 255 0 0
0.072991 -0.014357 0.468523 255 0 0
0.036569 -0.118182 0.023847 255 0 0
-0.183127 -0.030763 0.397527 255 0 0
-0.119538 -0.118469 0.087327 255 0 0
0.055581 -0.119160 0.252989 255 0 0
0.172811 -0.123516 -0.040678 255 0 0
0.055661 0.012208 0.464366 255 0 0
-0.200065 -0.016532 -0.287337 255 0 0
0.156885 0.068938 0.021606 255 0 0
0.079139 0.060265 -0.148227 255 0 0
0.154823 0.037489 -0.179852 255 0 0
0.170740 0.034204 0.302549 255 0 0
0.119857 0.051624 -0.167084 255 0 0
-0.111128 -0.103472 0.375547 255 0 0
-0.197570 -0.053187 -0.086831 255 0 0
-0.034510 0.036824 -0.235640 255 0 0
-0.200024 -0.017529 -0.258681 255 0 0
0.029180 0.074080 0.309510 255 0 0
0.042303 -0.000792 -0.433966 255 0 0
0.099177 -0.071683 0.257612 0 255 0
-0.116444 -0.132019 -0.455930 0 255 0
0.031066 -0.119758 -0.111009 0 255 0
0.085222 0.102635 0.228450 0 255 0
0.151498 0.055551 -0.157824 0 255 0
0.026682 0.049640 -0.207447 0 255 0
0.096050 -0.090082 -0.256406 0 255 0
0.080084 -0.133072 0.241961 0 255 0
0.198736 -0.020701 0.179730 0 255 0
0.156090 0.027536 -0.294954 0 255 0
-0.124738 -0.035020 -0.369247 0 255 0
-0.268637 0.107698 0.186596 0 255 0
-0.145924 -0.017579 -0.444184 0 255 0
0.195803 -0.362278 -0.081213 0 255 0
0.023157 0.038914 -0.253418 0 255 0
-0.019194 0.129258 0.074525 0 255 0
-0.143421 0.100638 0.183106 0 255 0
0.023731 -0.119411 0.057419 0 255 0
-0.370146 -0.325274 0.140883 0 255 0
0.134631 0.121811 0.010006 0 255 0
-0.201806 -0.039285 0.159455 0 255 0
0.247490 0.085455 -0.011328 0 255 0
-0.201557 -0.068008 0.066419 0 255 0
0.068332 -0.118079 0.377709 0 255 0
-0.230328 -0.496160 -0.048398 0 255 0
-0.270376 0.080168 0.043154 0 255 0
0.202991 -0.049268 0.221974 0 255 0
-0.363272 -0.279010 -0.371615 0 255 0
-0.388532 -0.167411 0.075024 0 255 0
-0.194746 -0.062349 0.355828 0 255 0
-0.181463 -0.090962 0.410693 0 255 0
0.154311 0.081901 0.011348 0 255 0
-0.216101 0.494908 0.355210 0 255 0
0.110207 0.200865 0.205531 0 255 0
-0.003171 -0.114703 0.010872 0 255 0
0.084079 -0.130303 -0.061372 0 255 0
-0.099930 -0.131709 0.061640 0 255 0
0.036200 -0.435261 -0.351739 0 255 0
0.204272 -0.039285 0.210726 0 255 0
-0.269379 -0.396032 -0.118128 0 255 0
-0.123300 0.120467 -0.020420 0 255 0
-0.007625 0.129023 0.073315 0 255 0
0.007582 0.061197 0.406124 0 255 0
-0.207526 -0.447286 -0.400237 0 255 0
-0.172817 0.042578 0.055129 0 255 0
0.033795 0.085736 -0.129949 0 255 0
0.205057 -0.059451 0.053168 0 255 0
0.202246 -0.044421 -0.393554 0 255 0
0.095139 -0.132566 0.217110 0 255 0
-0.155972 -0.025254 -0.277292 0 255 0
0.026094 -0.124757 0.226071 0 255 0
0.099788 0.031578 -0.305196 0 255 0
0.201808 0.281818 0.446858 0 255 0
-0.318297 -0.368919 -0.183869 0 255 0
0.043523 0.091077 0.302049 0 255 0
-0.433875 -0.308780 -0.298370 0 255 0
-0.029671 -0.001232 -0.452565 0 255 0
0.095785 -0.133987 -0.284227 0 255 0
-0.193497 0.013599 -0.160304 0 255 0
-0.103683 -0.134231 0.027720 0 255 0
-0.167964 0.444938 0.197117 0 255 0
0.107571 0.053778 0.437445 0 255 0
-0.198389 0.005248 0.222007 0 255 0
0.195143 0.027411 -0.083614 0 255 0
0.385988 -0.246011 0.191568 0 255 0
-0.052302 -0.003546 -0.450819 0 255 0
-0.248670 0.359127 -0.003300 0 255 0
0.052310 -0.061081 0.498317 0 255 0
-0.025091 -0.134337 -0.440224 0 255 0
0.195746 0.016560 0.228198 0 255 0
0.136167 0.076057 -0.119532 0 255 0
0.162970 0.024435 -0.344089 0 255 0
-0.160406 0.071549 0.047705 0 255 0
0.487070 -0.201459 0.337530 0 255 0
0.164871 -0.135040 -0.089311 0 255 0
0.033297 -0.123881 0.076117 0 255 0
0.032779 -0.118188 0.211607 0 255 0
-0.488215 0.438641 -0.480757 0 255 0
0.048084 -0.124775 0.103736 0 255 0
0.058177 -0.124434 0.285613 0 255 0
-0.485815 0.305298 0.476717 0 255 0
-0.234584 -0.049144 -0.121054 0 255 0
-0.084442 0.053935 -0.175058 0 255 0
-0.120792 0.057133 0.387716 0 255 0
0.066126 -0.136641 -0.410770 0 255 0
-0.113464 -0.074922 -0.478344 0 255 0
0.110717 -0.114316 0.380958 0 255 0
0.027887 -0.042861 -0.484928 0 255 0
0.178019 -0.000771 -0.404910 0 255 0
0.091745 -0.137580 -0.424525 0 255 0
-0.060347 -0.130179 0.080507 0 255 0
0.037401 -0.121367 0.081202 0 255 0
-0.074891 0.131440 0.014302 0 255 0
-0.168985 0.043949 0.220151 0 255 0
-0.096456 -0.104154 0.263146 0 255 0
-0.191083 -0.114608 -0.425248 0 255 0
0.188789 0.066735 0.192191 0 255 0
0.278279 -0.414035 -0.187806 0 255 0
-0.168989 -0.095396 0.438178 0 255 0
-0.209017 -0.035788 -0.261564 0 255 0
-0.038298 -0.048395 -0.494606 0 255 0
-0.166721 -0.073806 0.361273 0 255 0
0.201758 -0.039285 0.072181 0 255 0
0.192637 -0.111097 -0.012771 0 255 0
0.091379 0.117566 -0.056296 0 255 0
0.177533 -0.135025 -0.425570 0 255 0
-0.048326 -0.129378 -0.455532 0 255 0
0.291367 0.412805 0.296975 0 255 0
-0.230603 0.396698 0.261084 0 255 0
0.147457 0.044565 0.414707 0 255 0
-0.182199 0.034917 0.042829 0 255 0
0.012049 0.135315 0.087511 0 255 0
0.144471 0.113558 -0.055545 0 255 0
-0.154106 -0.076926 -0.237424 0 255 0
-0.149841 -0.054634 0.467269 0 255 0
-0.115103 0.025403 -0.342571 0 255 0
-0.210513 -0.046639 -0.386782 0 255 0
-0.306693 0.170310 0.413332 0 255 0
-0.094310 0.039619 -0.200850 0 255 0
-0.063867 0.038074 -0.235540 0 255 0
0.073279 -0.130664 -0.393479 0 255 0
-0.343301 0.072788 -0.478693 0 255 0
-0.201649 -0.025590 0.083839 0 255 0
0.087274 0.025811 -0.344348 0 255 0
0.177750 -0.130550 -0.015763 0 255 0
-0.104063 -0.111969 0.334373 0 255 0
0.154965 0.023071 -0.334654 0 255 0
-0.038814 0.042066 0.468987 0 255 0
-0.089501 -0.317895 -0.409446 0 255 0
0.166058 0.061045 0.027627 0 255 0
-0.486840 -0.251758 -0.002325 0 255 0
-0.191721 0.031921 -0.111143 0 255 0
-0.113877 -0.081428 -0.476538 0 255 0
0.000130 -0.121066 -0.037961 0 255 0
-0.182337 0.027827 0.189421 0 255 0
0.170838 -0.188471 0.069338 0 255 0
0.143845 0.076761 0.436910 0 255 0
-0.019509 0.102149 -0.088093 0 255 0
-0.082381 0.126544 0.059440 0 255 0
-0.236055 0.038804 -0.089991 0 255 0
-0.073630 -0.291886 0.459620 0 255 0
-0.080183 -0.113959 0.416608 0 255 0
0.139002 0.117677 0.048478 0 255 0
0.116193 -0.036397 0.331099 0 255 0
-0.006168 0.055377 0.453886 0 255 0
0.042672 0.075920 0.345611 0 255 0
0.083694 0.081126 0.313015 0 255 0
-0.303007 0.057990 0.454645 0 255 0
-0.458670 0.135137 -0.424823 0 255 0
-0.192666 0.011348 -0.253146 0 255 0
-0.201683 -0.043922 0.206662 0 255 0
0.406020 -0.067297 -0.021590 0 255 0
0.280707 0.229648 -0.343597 0 255 0
0.401336 -0.296271 0.363191 0 255 0
-0.087833 0.038881 -0.295232 0 255 0
0.109539 0.064579 0.368989 0 255 0
0.097777 -0.023439 0.263829 0 255 0
-0.167175 0.070505 -0.117643 0 255 0
-0.156354 -0.123837 -0.458344 0 255 0
-0.083037 -0.095553 0.487491 0 255 0
0.176777 0.041090 0.110958 0 255 0
-0.119242 -0.133460 -0.146725 0 255 0
-0.207623 0.048292 -0.134809 0 255 0
0.039463 -0.013336 0.482939 0 255 0
0.109099 -0.052447 -0.479290 0 255 0
-0.052160 -0.127619 0.078695 0 255 0
-0.149147 -0.021494 0.265653 0 255 0
-0.103813 -0.117328 0.230898 0 255 0
0.064958 0.101385 0.248346 0 255 0
-0.001029 0.034218 -0.354593 0 255 0
-0.024628 0.061610 0.403302 0 255 0
-0.219696 -0.123967 0.497916 0 255 0
0.045248 0.136083 0.042103 0 255 0
0.065506 0.062221 -0.160567 0 255 0
0.014664 -0.116422 0.183044 0 255 0
-0.201602 -0.003991 0.285197 0 255 0
-0.005799 0.012456 -0.412327 0 255 0
0.037462 -0.135714 -0.353066 0 255 0
0.101023 0.135068 -0.476623 0 255 0
-0.069499 0.043557 -0.225921 0 255 0
-0.154179 -0.082943 -0.392353 0 255 0
0.173660 0.047096 0.207076 0 255 0
-0.287888 0.038879 0.489267 0 255 0
-0.053946 -0.125102 0.113549 0 255 0
-0.150085 0.009616 0.448217 0 255 0
-0.180159 -0.028498 0.270232 0 255 0
-0.259930 -0.443947 0.282562 0 255 0
0.011376 -0.125174 -0.059796 0 255 0
-0.065129 -0.134028 -0.420520 0 255 0
0.121597 0.085548 -0.104065 0 255 0
-0.156093 0.092911 -0.066332 0 255 0
0.012212 -0.117688 -0.500550 0 255 0
-0.096611 -0.123695 -0.395586 0 255 0
-0.022249 0.038471 -0.321515 0 255 0
0.093199 -0.132939 -0.263937 0 255 0
0.071283 -0.126922 -0.234795 0 255 0
-0.035305 -0.130565 -0.333959 0 255 0
-0.395502 -0.256795 0.082966 0 255 0
-0.148434 -0.055092 0.482379 0 255 0
0.355338 0.202662 -0.234007 0 255 0
-0.081565 0.041913 -0.262407 0 255 0
-0.087164 -0.132470 -0.137201 0 255 0
0.119515 -0.116861 0.371674 0 255 0
-0.320760 -0.242164 0.377643 0 255 0
-0.096178 -0.136417 -0.170224 0 255 0
0.037808 -0.119101 0.271081 0 255 0
0.100848 0.042991 -0.248600 0 255 0
-0.141337 0.006104 -0.410515 0 255 0
-0.061155 0.007631 0.477517 0 255 0
-0.200939 -0.033772 0.346469 0 255 0
-0.036460 -0.122355 0.203232 0 255 0
0.012922 -0.185681 -0.274201 0 255 0
0.033944 -0.008824 0.479098 0 255 0
-0.095756 0.109506 -0.056483 0 255 0
-0.211881 -0.075485 -0.213358 0 255 0
-0.087201 -0.129263 -0.109725 0 255 0
-0.077821 -0.002864 -0.455541 0 255 0
-0.096668 0.134777 0.017561 0 255 0
-0.387913 -0.050170 -0.142052 0 255 0
-0.186153 0.000243 0.358823 0 255 0
0.199523 -0.038166 -0.160445 0 255 0
-0.068287 -0.128175 -0.256294 0 255 0
-0.073377 -0.038005 -0.486040 0 255 0
-0.008582 -0.118127 0.150982 0 255 0
-0.202809 -0.033064 0.069627 0 255 0
-0.005539 0.015116 -0.417043 0 255 0
0.162087 0.063068 0.074185 0 255 0
0.168416 -0.473605 -0.377910 0 255 0
-0.159452 0.079343 -0.059259 0 255 0
-0.304493 -0.192506 -0.434984 0 255 0
0.187705 0.024685 0.250106 0 255 0
0.126503 -0.009829 -0.443990 0 255 0
-0.156141 -0.062110 -0.388459 0 255 0
-0.071246 0.127693 0.005346 0 255 0
-0.009289 0.095459 0.272901 0 255 0
-0.111364 0.093594 -0.100526 0 255 0
-0.131926 -0.117069 0.427869 0 255 0
0.255582 -0.211959 -0.127918 0 255 0
0.245450 -0.192312 -0.365844 0 255 0
-0.077710 -0.105815 0.481465 0 255 0
0.251788 -0.208392 0.368673 0 255 0
0.188540 0.226020 -0.133040 0 255 0
0.138250 0.111687 0.161868 0 255 0
-0.193547 0.003130 -0.341162 0 255 0
-0.195036 -0.086830 0.385074 0 255 0
-0.045913 0.132492 0.089956 0 255 0
0.388099 0.092512 0.050611 0 255 0
0.183603 -0.125601 0.392924 0 255 0
-0.051353 0.042778 -0.208781 0 255 0
0.003482 0.131023 -0.006074 0 255 0
0.193546 0.045997 -0.101605 0 255 0
-0.415642 0.151632 0.147077 0 255 0
-0.057125 0.035998 -0.285793 0 255 0
-0.029126 0.084888 -0.123611 0 255 0
-0.064000 -0.122699 0.420570 0 255 0
-0.091966 -0.068648 0.491975 0 255 0
0.214433 -0.378965 -0.010434 0 255 0
-0.037741 -0.121021 0.436610 0 255 0
-0.196498 -0.018196 -0.170250 0 255 0
0.205434 -0.097359 -0.225694 0 255 0
0.204812 -0.001476 0.214093 0 255 0
-0.006306 0.040316 0.478417 0 255 0
0.021592 0.134950 0.029074 0 255 0
0.053923 0.076357 0.340770 0 255 0
0.151316 0.044386 -0.187344 0 255 0
0.093036 -0.157746 0.178462 0 255 0
0.147569 0.030869 0.425644 0 255 0
0.048355 -0.122218 -0.200941 0 255 0
0.273394 -0.477840 -0.145243 0 255 0
-0.204760 -0.076000 0.136336 0 255 0
0.168546 -0.140662 -0.235828 0 255 0
-0.182613 -0.134084 0.195877 0 255 0
0.304345 -0.301591 -0.274513 0 255 0
-0.325650 0.014053 -0.191795 0 255 0
-0.168789 0.060741 0.010494 0 255 0
0.061160 -0.125386 -0.125867 0 255 0
0.067286 0.096741 -0.095958 0 255 0
0.034731 -0.012595 -0.478683 0 255 0
-0.043749 -0.118602 0.456292 0 255 0
-0.066088 -0.084968 -0.492772 0 255 0
0.053121 0.087802 -0.117748 0 255 0
-0.064495 0.065538 -0.159599 0 255 0
0.127020 0.121078 -0.023193 0 255 0
-0.177236 -0.040639 0.423821 0 255 0
-0.026687 0.129082 0.010518 0 255 0
0.135142 -0.120103 0.435134 0 255 0
-0.087581 0.109737 -0.073145 0 255 0
0.160146 -0.131497 -0.161173 0 255 0
0.198202 -0.092556 0.372621 0 255 0
-0.197469 -0.006294 0.213405 0 255 0
-0.186146 -0.028093 -0.358889 0 255 0
-0.043643 -0.120593 -0.199946 0 255 0
-0.132161 -0.111657 0.451928 0 255 0
0.029009 0.054240 0.461956 0 255 0
-0.021670 -0.117987 0.226146 0 255 0
-0.172994 0.040719 0.248343 0 255 0
-0.254305 -0.151143 -0.364418 0 255 0
-0.049117 -0.118280 0.438399 0 255 0
-0.091503 -0.130728 -0.067370 0 255 0
0.152297 0.090609 0.161870 0 255 0
0.208855 -0.064823 0.164055 0 255 0
0.466733 -0.046619 0.148632 0 255 0
-0.120870 -0.081800 -0.465244 0 255 0
-0.191177 0.014568 -0.253217 0 255 0
-0.148530 -0.050727 0.465566 0 255 0
0.094354 -0.022885 -0.301429 0 255 0
-0.088845 -0.137140 -0.435635 0 255 0
-0.061227 0.168251 -0.471309 0 255 0
-0.245905 0.284863 -0.453598 0 255 0
-0.187028 -0.076566 -0.439621 0 255 0
-0.173520 0.011781 -0.370558 0 255 0
0.301859 -0.180902 -0.260114 0 255 0
0.060617 0.030850 -0.344055 0 255 0
-0.496326 0.080176 -0.297364 0 255 0
0.431467 0.186897 -0.341471 0 255 0
-0.000318 0.062945 0.429649 0 255 0
-0.073014 -0.128121 0.266326 0 255 0
-0.195993 -0.017083 -0.303063 0 255 0
0.115737 -0.032410 0.315492 0 255 0
0.085804 -0.131845 -0.278459 0 255 0
0.066477 -0.130531 0.212876 0 255 0
0.105421 -0.131691 -0.226639 0 255 0
0.011471 -0.134313 -0.446256 0 255 0
0.061819 -0.129755 0.008538 0 255 0
0.046829 0.036875 -0.285014 0 255 0
0.009862 0.121187 -0.049792 0 255 0
-0.217427 -0.231362 -0.107455 0 255 0
0.037123 0.078218 0.331002 0 255 0
-0.123407 0.030843 0.452992 0 255 0
-0.204331 -0.047455 -0.058199 0 255 0
-0.197505 -0.080919 -0.015938 0 255 0
-0.040676 -0.121654 -0.107957 0 255 0
0.103992 0.037256 -0.260281 0 255 0
-0.198890 0.189061 -0.323795 0 255 0
0.210090 -0.050297 -0.145769 0 255 0
0.161217 -0.127522 -0.394297 0 255 0
-0.195594 -0.023235 -0.406901 0 255 0
-0.113650 -0.024203 -0.296595 0 255 0
0.002050 0.064727 0.459414 0 255 0
0.200556 -0.068360 -0.197758 0 255 0
0.158991 -0.134687 -0.050756 0 255 0
0.172718 -0.026643 0.438417 0 255 0
-0.032850 0.118608 0.189482 0 255 0
-0.198960 -0.017744 -0.165538 0 255 0
0.044931 -0.125199 -0.262591 0 255 0
0.080919 -0.078640 0.490826 0 255 0
0.092974 0.034142 -0.306951 0 255 0
-0.032140 0.083520 0.336098 0 255 0
-0.104983 -0.225969 -0.123960 0 255 0
-0.088442 0.479294 0.175967 0 255 0
0.089102 -0.130830 0.235926 0 255 0
0.091991 0.105920 0.215706 0 255 0
-0.017674 -0.124026 -0.215100 0 255 0
0.099222 0.085484 -0.112549 0 255 0
-0.218267 0.046263 -0.124324 0 255 0
-0.071121 0.011673 -0.423214 0 255 0
0.119533 0.314222 0.382836 0 255 0
0.159512 -0.360526 -0.056611 0 255 0
0.123265 -0.137994 -0.195170 0 255 0
0.164054 -0.106814 -0.459096 0 255 0
-0.075902 0.054565 -0.181752 0 255 0
-0.403534 0.188389 0.412672 0 255 0
-0.007509 -0.036458 -0.486224 0 255 0
-0.251548 0.172891 -0.176506 0 255 0
-0.187121 -0.108567 -0.390961 0 255 0
-0.137917 -0.022483 0.303454 0 255 0
0.021680 -0.118591 0.149925 0 255 0
-0.131086 0.122256 0.024238 0 255 0
0.094995 -0.129653 -0.441982 0 255 0
0.157984 0.076376 0.116171 0 255 0
0.199863 -0.015781 0.082360 0 255 0
0.078725 -0.131998 0.249237 0 255 0
0.032889 0.037479 -0.263241 0 255 0
0.046624 -0.123809 0.083454 0 255 0
0.049912 -0.130584 -0.293418 0 255 0
0.491896 0.337217 -0.007942 0 255 0
-0.049001 -0.175691 -0.216231 0 255 0
-0.180725 0.498087 0.123755 0 255 0
0.198522 -0.020506 -0.038873 0 255 0
-0.168343 0.011590 -0.371473 0 255 0
-0.022290 0.124015 0.154619 0 255 0
-0.030603 0.054215 0.457472 0 255 0
-0.060241 -0.131511 0.346919 0 255 0
0.329265 0.408306 -0.353536 0 255 0
-0.135218 0.113548 0.166026 0 255 0
0.395658 -0.173355 0.159574 0 255 0
-0.018630 0.044833 -0.237162 0 255 0
0.199644 -0.092866 -0.414920 0 255 0
-0.019880 -0.126359 0.373970 0 255 0
-0.005285 0.115451 0.219715 0 255 0
0.038595 -0.031279 0.491122 0 255 0
0.044555 -0.120410 0.084040 0 255 0
-0.041571 -0.498247 -0.416915 0 255 0
-0.078313 -0.019414 -0.466654 0 255 0
-0.164738 -0.087378 0.457979 0 255 0
-0.002752 -0.117093 0.059386 0 255 0
0.207580 -0.009598 0.272590 0 255 0
-0.200655 -0.096932 -0.195829 0 255 0
-0.400314 -0.289702 -0.292146 0 255 0
-0.186296 0.026250 -0.252350 0 255 0
0.435631 -0.360440 -0.297813 0 255 0
-0.183306 0.017742 -0.339793 0 255 0
0.156216 0.095594 -0.045957 0 255 0
0.047138 0.131697 0.070387 0 255 0
-0.076849 -0.092554 -0.485781 0 255 0
0.048400 -0.136804 -0.307550 0 255 0
0.015686 -0.003727 -0.453580 0 255 0
-0.121746 0.023254 -0.369449 0 255 0
0.169491 0.065212 -0.125026 0 255 0
0.171972 0.043225 0.089537 0 255 0
0.201974 -0.065219 0.038867 0 255 0
-0.406408 -0.031797 0.464615 0 255 0
0.152687 0.012332 0.441553 0 255 0
0.051050 -0.124216 0.240439 0 255 0
-0.149288 -0.131557 -0.146680 0 255 0
0.134348 -0.025803 -0.283545 0 255 0
0.141809 -0.094952 0.399199 0 255 0
-0.022612 -0.110041 0.460291 0 255 0
0.076005 0.131382 0.014230 0 255 0
0.163227 0.060888 0.111690 0 255 0
0.202160 -0.025075 -0.002126 0 255 0
-0.091162 -0.134114 -0.071155 0 255 0
-0.247870 -0.382113 0.148331 0 255 0
-0.033530 0.091861 0.298818 0 255 0
-0.060865 0.049902 -0.228919 0 255 0
-0.177415 0.032520 0.362071 0 255 0
0.149443 0.039427 -0.233166 0 255 0
0.186727 0.021585 0.267895 0 255 0
0.115655 0.063975 0.355850 0 255 0
-0.199408 -0.084660 0.159770 0 255 0
0.029225 0.065918 0.371190 0 255 0
0.115467 -0.132318 -0.009165 0 255 0
-0.397825 -0.245730 0.472211 0 255 0
-0.159408 0.164176 0.302653 0 255 0
0.137379 -0.138738 -0.420808 0 255 0
-0.131623 0.052332 0.392277 0 255 0
0.019758 -0.116750 -0.205088 0 255 0
0.103398 0.075135 0.331843 0 255 0
-0.099008 -0.366632 0.019900 0 255 0
0.207419 -0.112419 0.364758 0 255 0
0.177890 -0.132981 0.197461 0 255 0
-0.175634 -0.285283 0.279152 0 255 0
0.191314 0.020142 0.209215 0 255 0
0.041488 0.004125 -0.432588 0 255 0
0.302803 -0.324850 -0.024075 0 255 0
0.174471 -0.090112 0.419573 0 255 0
0.183326 0.032002 0.155883 0 255 0
0.051416 -0.300244 0.027546 0 255 0
-0.143173 0.104733 0.139339 0 255 0
0.046048 -0.115430 0.438750 0 255 0
-0.009220 -0.115888 -0.172702 0 255 0
0.165560 0.073190 -0.102517 0 255 0
-0.188547 0.033558 0.037215 0 255 0
0.016718 -0.116490 -0.032024 0 255 0
0.177998 -0.133208 0.003358 0 255 0
-0.192491 -0.102100 0.134268 0 255 0
0.034381 0.111471 0.198217 0 255 0
0.056264 -0.129344 0.262909 0 255 0
-0.303573 -0.463157 -0.397699 0 255 0
0.031908 -0.119285 -0.006197 0 255 0
-0.061945 -0.039276 0.489296 0 255 0
-0.055672 -0.129602 0.124467 0 255 0
0.112247 -0.132987 0.002463 0 255 0
-0.172429 0.027912 0.376900 0 255 0
0.196204 0.007183 -0.308644 0 255 0
0.006117 0.118930 0.181844 0 255 0
-0.129564 0.111961 -0.044633 0 255 0
-0.122444 -0.134055 -0.406560 0 255 0
-0.155373 -0.047613 0.347284 0 255 0
0.169264 -0.013529 0.449054 0 255 0
-0.193135 0.018390 -0.174823 0 255 0
0.043018 -0.130713 -0.417799 0 255 0
-0.111447 0.032346 -0.315294 0 255 0
-0.034822 0.041985 -0.221389 0 255 0
-0.078310 -0.127974 0.401103 0 255 0
0.196283 0.016501 0.134603 0 255 0
0.024243 0.056522 0.447285 0 255 0
-0.055788 0.158569 0.430032 0 255 0
-0.028860 -0.122809 0.112474 0 255 0
0.176274 -0.005323 -0.413598 0 255 0
0.179849 -0.122999 0.365343 0 255 0
-0.141451 -0.110572 -0.467866 0 255 0
0.173903 0.051403 -0.071301 0 255 0
-0.115006 -0.090921 0.459831 0 255 0
-0.306270 -0.357310 -0.119183 0 255 0
-0.181441 -0.032640 0.325780 0 255 0
0.100293 -0.061789 -0.390971 0 255 0
-0.201718 -0.093570 -0.160998 0 255 0
0.084409 -0.109526 0.464491 0 255 0
-0.104474 0.107999 -0.057855 0 255 0
-0.000145 -0.064700 -0.499837 0 255 0
0.386618 0.175818 -0.196257 0 255 0
-0.175251 0.020130 -0.325034 0 255 0
0.191728 -0.103407 -0.112777 0 255 0
